# .PCD v0.7 - Point Cloud Data file format
VERSION 0.7
FIELDS x y z intensity ring
SIZE 4 4 4 4 2
TYPE F F F F U
COUNT 1 1 1 1 1
WIDTH 1269
HEIGHT 1
VIEWPOINT 0 0 0 1 0 0 0
POINTS 1269
DATA ascii
-7.9667139 0.31022698 2.1362925 100 15
-1.3936338 0.056948669 -0.37373474 8 0
-4.0379858 0.16571091 0.070542626 87 8
-1.6160709 0.066885762 -0.37341875 7 1
-4.2864118 0.17815387 0.22483528 69 9
-1.8772001 0.07834971 -0.36520842 6 2
-4.3595061 0.1827172 0.38174215 45 10
-2.2538683 0.09525305 -0.35729638 6 3
-4.3196435 0.18331213 0.53086293 74 11
-2.8539579 0.12161268 -0.35073999 7 4
-4.3201475 0.18484417 0.68487018 16 12
-3.8278055 0.16511801 -0.335201 7 5
-4.0565939 0.17640476 -0.21279801 100 6
-7.9880714 0.34876734 1.8459483 79 14
-4.0274873 0.17725171 -0.070368104 100 7
-7.9649806 0.35193744 2.1362925 64 15
-1.3894571 0.064066835 -0.37269944 8 0
-4.0470505 0.1873143 0.070717148 87 8
-1.5962323 0.074438624 -0.36891973 7 1
-4.2914057 0.20087577 0.2251493 64 9
-1.8846085 0.088546447 -0.36673489 6 2
-4.4440665 0.20957628 0.38923752 54 10
-2.2493927 0.1068658 -0.35667065 6 3
-4.3067274 0.20535946 0.52940047 72 11
-2.8651793 0.13712271 -0.35220242 7 4
-4.3349051 0.20822065 0.6873731 19 12
-3.850769 0.18631221 -0.3372927 7 5
-4.3513346 0.21129335 0.84681034 7 13
-4.0436454 0.1970589 -0.21216999 100 6
-7.9822426 0.3903968 1.8450485 80 14
-4.0464768 0.19932155 -0.070717148 100 7
-7.9861827 0.39478093 2.1425042 57 15
-1.4083955 0.072332174 -0.3778758 8 0
-4.0500088 0.20870748 0.07078696 99 8
-1.5958207 0.082795672 -0.36891973 7 1
-4.270349 0.22230402 0.22410259 63 9
-1.8743162 0.097900346 -0.3648268 7 2
-4.4508667 0.23326017 0.38993478 43 10
-2.2488024 0.11864137 -0.35667065 6 3
-4.305593 0.22790723 0.52940047 72 11
-2.8366697 0.15064941 -0.34879011 6 4
-4.3593984 0.23228122 0.6914404 1 12
-3.8537197 0.20668617 -0.33764133 7 5
-4.4011393 0.23681618 0.85673243 1 13
-4.0465469 0.21844456 -0.21237932 100 6
-7.9800887 0.43218556 1.8450485 82 14
-4.0413847 0.22028804 -0.070647344 100 7
-7.9955788 0.43722311 2.1456099 100 15
-1.4002825 0.079268306 -0.37580526 8 0
-4.0528531 0.23013771 0.070856772 94 8
-1.6109298 0.092038959 -0.37251896 7 1
-4.2910609 0.24591808 0.22525398 67 9
-1.8678979 0.10737514 -0.36368197 6 2
-4.4396396 0.25598779 0.38906324 47 10
-2.2718148 0.13178752 -0.36042506 6 3
-4.3083038 0.2506783 0.52988791 78 11
-2.8318784 0.1652685 -0.3483026 7 4
-4.3699551 0.25579596 0.69331765 1 12
-3.8446293 0.22639251 -0.3369441 7 5
-4.049335 0.23986599 -0.21258868 100 6
-7.9718804 0.47361574 1.8436987 67 14
-4.0361829 0.24120761 -0.070577532 100 7
-7.9873962 0.47873437 2.144057 100 15
-1.384423 0.08564502 -0.37166417 8 0
-4.0416136 0.25073668 0.07068225 96 8
-1.6104258 0.10047273 -0.37251896 7 1
-4.303668 0.26925623 0.22598669 69 9
-1.8829852 0.11813723 -0.36673489 6 2
-4.4501691 0.27998033 0.39010909 49 10
-2.2750366 0.14393014 -0.36105078 6 3
-4.3168378 0.27386105 0.53110665 82 11
-2.8388987 0.18059842 -0.34927759 7 4
-4.3488421 0.27741548 0.69018894 1 12
-3.8473675 0.24677542 -0.3372927 7 5
-4.0599828 0.26183584 -0.21321672 100 6
-4.3677478 0.2824496 1.0104802 24 14
-4.0348649 0.26233733 -0.070577532 100 7
-7.9655018 0.51929402 2.1388805 100 15
-1.3801005 0.092633761 -0.37062889 8 0
-4.03825 0.27175942 0.070647344 91 8
-1.6098777 0.10890336 -0.37251896 7 1
-4.2982135 0.29151472 0.22577733 67 9
-1.8784233 0.12772879 -0.36597168 6 2
-4.4605694 0.3040902 0.39115497 28 10
-2.2624269 0.15503027 -0.35917357 6 3
-4.3054428 0.29577953 0.52988791 85 11
-2.8497965 0.19627848 -0.35073999 7 4
-4.3552122 0.30072704 0.6914404 1 12
-3.8301218 0.26581287 -0.33589822 7 5
-4.4203792 0.30755231 0.86131191 1 13
-4.0585561 0.28308985 -0.21321672 100 6
-7.9975886 0.55924529 1.8508973 65 14
-4.0334358 0.28345978 -0.070577532 96 7
-7.974236 0.56180799 2.1419864 100 15
-1.3950111 0.10097462 -0.37476999 8 0
-4.0387659 0.29304522 0.07068225 87 8
-1.5976441 0.11620194 -0.36981952 7 1
-4.2886605 0.31343439 0.22535865 55 9
-1.8738129 0.13727535 -0.36520842 6 2
-4.4529543 0.32700437 0.39063203 36 10
-2.2576735 0.16618922 -0.35854784 6 3
-4.288053 0.31639957 0.52793807 85 11
-2.8487298 0.21119702 -0.35073999 7 4
-4.3378186 0.32235521 0.68893749 1 12
-3.8327014 0.28549114 -0.33624685 7 5
-4.3287072 0.32319739 0.84375745 13 13
-4.0450678 0.30343965 -0.21258868 100 6
-8.0003796 0.60155237 1.852247 48 14
-4.0439143 0.30477262 -0.07078696 91 7
-7.9886284 0.60347104 2.1466453 85 15
-1.4021864 0.10863086 -0.37684056 8 0
-4.0531802 0.31472155 0.070961483 94 8
-1.589264 0.1236823 -0.36801991 8 1
-4.2969747 0.33591515 0.22588199 64 9
-1.873094 0.14675765 -0.36520842 6 2
-4.4214478 0.34719858 0.38801736 49 10
-2.2489264 0.17699407 -0.35729638 6 3
-4.2824388 0.3377867 0.52745056 81 11
-2.8357511 0.22467275 -0.34927759 7 4
-4.2947788 0.34102276 0.68236721 27 12
-3.8590124 0.30709982 -0.33868721 7 5
-4.3739843 0.34884945 0.85291624 3 13
-4.0514436 0.32454824 -0.21300736 100 6
-8.0030603 0.64250535 1.8535968 35 14
-4.0383329 0.32491565 -0.070717148 93 7
-8.0008755 0.64514071 2.1507864 100 15
-1.397768 0.11540885 -0.37580526 8 0
-4.0515356 0.33523214 0.070961483 87 8
-1.6080153 0.13361591 -0.37251896 7 1
-4.283278 0.35666505 0.22525398 61 9
-1.8723272 0.15623619 -0.36520842 6 2
-4.4434595 0.37156603 0.39010909 47 10
-2.2696214 0.19058554 -0.36073789 6 3
-4.2885242 0.36087132 0.52842557 81 11
-2.8424897 0.23968917 -0.35025251 7 4
-4.3303328 0.36667281 0.6883117 8 12
-3.8295584 0.32494178 -0.33624685 7 5
-4.3290615 0.36808711 0.84452063 19 13
-4.0536695 0.34609556 -0.21321672 100 6
-7.9898777 0.68356901 1.8513472 60 14
-4.0286064 0.34537318 -0.070577532 96 7
-8.0147114 0.68850976 2.1554451 35 15
-1.3855767 0.12195338 -0.37269944 8 0
-4.0556388 0.35767478 0.071066193 85 8
-1.6189156 0.14334524 -0.37521836 7 1
-4.3111272 0.38248163 0.22682405 58 9
-1.8714545 0.1663644 -0.36520842 6 2
-4.4374146 0.39524797 0.38976046 40 10
-2.2429795 0.20057508 -0.35667065 6 3
-2.8451056 0.25542036 -0.35073999 6 4
-4.3282852 0.39009634 0.6883117 4 12
-3.8198068 0.34494063 -0.33554959 7 5
-4.3270063 0.39150369 0.84452063 7 13
-4.0596938 0.36874709 -0.2136354 100 6
-8.007411 0.72873038 1.8562962 51 14
-4.0346451 0.36789089 -0.070717148 93 7
-7.9935546 0.73028457 2.1507864 100 15
-1.3887435 0.12980771 -0.37373474 8 0
-4.0556355 0.3797996 0.071101107 90 8
-1.6103556 0.15137261 -0.37341875 7 1
-4.3209252 0.40692556 0.22745208 61 9
-1.870527 0.1764873 -0.36520842 6 2
-4.4570308 0.42131296 0.39167792 45 10
-2.2379282 0.21233438 -0.35604486 6 3
-5.1064601 0.4853996 0.62982082 24 11
-2.8476346 0.27118689 -0.35122749 7 4
-4.3183174 0.41200289 0.68706024 3 12
-3.8238347 0.36617297 -0.33607253 7 5
-4.3639102 0.4186596 0.852153 1 13
-4.0656595 0.39076149 -0.21405408 100 6
-8.026762 0.77288944 1.8616948 35 14
-4.044538 0.39086872 -0.070926577 90 7
-8.0010233 0.77463919 2.1538923 100 15
-1.3957348 0.13783665 -0.37580526 8 0
-4.0396609 0.39965114 0.070856772 85 8
-1.601784 0.15903243 -0.37161914 8 1
-4.3147602 0.42914852 0.22724274 57 9
-1.8734845 0.18666847 -0.36597168 6 2
-4.4686413 0.44602993 0.39289808 49 10
-2.244648 0.22483708 -0.35729638 6 3
-5.0169411 0.50341058 0.61909634 27 11
-2.8264241 0.28410697 -0.34879011 7 4
-4.3907881 0.44212908 0.69894928 1 12
-3.8218648 0.38618821 -0.33607253 7 5
-4.0556097 0.41123849 -0.2136354 100 6
-8.010973 0.81372452 1.8589954 66 14
-4.0424361 0.41204104 -0.070926577 91 7
-7.9853263 0.81534553 2.1507864 100 15
-1.3988369 0.14554285 -0.37684056 8 0
-4.0613804 0.42328528 0.071275629 87 8
-1.6048352 0.16754192 -0.37251896 7 1
-4.2925901 0.44965449 0.22619602 57 9
-1.8841966 0.19770408 -0.36826137 6 2
-4.4860597 0.4715037 0.39464122 38 10
-2.2591975 0.23784979 -0.35979933 6 3
-4.9570789 0.52275813 0.61202788 51 11
-2.8288457 0.29932034 -0.34927759 7 4
-4.4001989 0.46636289 0.70082647 1 12
-3.8277862 0.40636936 -0.33676979 7 5
-4.3300848 0.46045911 0.84642875 9 13
-4.051415 0.43225569 -0.21353073 100 6
-8.0027275 0.85524368 1.8580956 16 14
-4.0482521 0.43334836 -0.071066193 90 7
-7.9964633 0.85739744 2.1549275 97 15
-1.3904006 0.15178244 -0.37476999 8 0
-4.0671368 0.44470441 0.071415246 85 8
-1.6078408 0.17608711 -0.37341875 8 1
-4.2982006 0.47224763 0.22661473 40 9
-1.8558511 0.20423204 -0.36291873 6 2
-4.3509288 0.47957799 0.38296232 50 10
-2.2618914 0.24971545 -0.36042506 6 3
-4.2716885 0.47235298 0.52769434 12 11
-2.8194025 0.31275955 -0.3483026 7 4
-8.0082827 0.88978082 1.2761924 33 12
-3.8256805 0.42573801 -0.33676979 6 5
-8.0095587 0.89275491 1.5665419 19 13
-4.0610838 0.45408744 -0.21415874 84 6
-8.0060425 0.89660698 1.8598953 69 14
-4.0340834 0.45249414 -0.070856772 91 7
-8.0112209 0.90001637 2.1601038 100 15
-1.3742596 0.15706292 -0.37062889 10 0
-4.0648336 0.46528497 0.071415246 82 8
-1.5952808 0.18316981 -0.37071934 8 1
-4.3175817 0.49650627 0.22776611 46 9
-1.8664958 0.21497034 -0.36520842 6 2
-4.3623004 0.50319266 0.38418248 49 10
-2.2644777 0.26200858 -0.36105078 6 3
-4.9652367 0.57537585 0.61373407 28 11
-2.825671 0.32794097 -0.34927759 7 4
-8.0115252 0.93121457 1.277444 31 12
-3.8154829 0.44484097 -0.33607253 7 5
-8.0340261 0.93809336 1.5722662 72 13
-4.0646849 0.47533315 -0.21447276 76 6
-8.0110798 0.93825048 1.8621449 82 14
-4.0356312 0.47407749 -0.070926577 93 7
-7.98913 0.93992019 2.1554451 100 15
-1.3887639 0.1660915 -0.37476999 8 0
-4.056385 0.48584911 0.071310528 84 8
-1.6097783 0.19337903 -0.37431854 8 1
-4.3188882 0.51958394 0.22797546 40 9
-1.8731413 0.22567995 -0.36673489 6 2
-4.4624643 0.538436 0.39324668 40 10
-2.247386 0.27196354 -0.35854784 6 3
-4.2842441 0.51920801 0.52988791 5 11
-2.8436215 0.34512308 -0.35171497 7 4
-8.0124226 0.97386616 1.2783825 64 12
-3.8091459 0.46433017 -0.33572391 7 5
-8.0036697 0.97705501 1.5673052 16 13
-4.0680881 0.497336 -0.21478678 70 6
-8.0041227 0.97994584 1.8616948 33 14
-4.045002 0.49666426 -0.071136013 90 7
-7.9879341 0.98220915 2.1564806 100 15
-1.3840413 0.17288208 -0.37373474 8 0
-4.0656915 0.50856948 0.071519956 84 8
-1.5932751 0.19986495 -0.37071934 8 1
-4.3299809 0.5439316 0.22870816 42 9
-1.8641423 0.23450424 -0.36520842 7 2
-4.4635377 0.5622927 0.39359534 43 10
-2.2459311 0.28372687 -0.35854784 6 3
-2.8417754 0.36000791 -0.35171497 7 4
-3.8046858 0.48401752 -0.33554959 7 5
-8.0237617 1.0221733 1.5722662 72 13
-4.0535407 0.51711273 -0.21415874 61 6
-8.0201454 1.0245594 1.8666438 42 14
-4.042346 0.51783663 -0.071136013 91 7
-7.9865136 1.024513 2.1575158 100 15
-1.3869485 0.18062536 -0.37476999 8 0
-4.0689216 0.53062677 0.071624674 87 8
-1.5922068 0.2082044 -0.37071934 7 1
-4.3191514 0.56555915 0.22828946 48 9
-1.8628889 0.24426191 -0.36520842 7 2
-4.4684339 0.58669305 0.39429256 40 10
-2.2424564 0.29522514 -0.35823497 7 3
-2.8241074 0.37280318 -0.34976503 7 4
-3.8258009 0.50707316 -0.33764133 7 5
-8.0299768 1.0657225 1.574556 85 13
-4.0507774 0.53832954 -0.21415874 60 6
-8.0185337 1.0670519 1.8675436 82 14
-4.0534544 0.54084611 -0.07138034 84 7
-1.3898124 0.18840413 -0.37580526 8 0
-4.075995 0.55326879 0.071799204 81 8
-1.5988185 0.21758972 -0.37251896 7 1
-4.3101945 0.58735698 0.22797546 51 9
-1.8479679 0.25215402 -0.36253712 7 2
-4.4495087 0.60792464 0.39289808 29 10
-2.2604508 0.30964321 -0.36136368 2 3
-2.8181834 0.38704526 -0.34927759 7 4
-3.8092773 0.52519286 -0.33642116 6 5
-8.0067825 1.1053354 1.5711213 39 13
-4.0538392 0.56035292 -0.21447276 57 6
-8.001255 1.1074184 1.8648442 76 14
-4.042644 0.56096268 -0.071240723 85 7
-8.0231838 1.114735 2.1704566 50 15
-1.384981 0.19513905 -0.37476999 8 0
-4.0770025 0.57516229 0.071869008 79 8
-1.5976573 0.22595797 -0.37251896 7 1
-4.3288126 0.61299801 0.22912684 54 9
-1.8524537 0.26265359 -0.36368197 7 2
-4.3555245 0.61833155 0.38487977 42 10
-2.2685771 0.32286608 -0.362928 0 3
-2.8239789 0.40291715 -0.35025251 7 4
-3.8045032 0.54484814 -0.33624685 6 5
-8.0416965 1.1530946 1.5791353 88 13
-4.0646882 0.5835585 -0.21520546 57 6
-8.0069199 1.1509604 1.8675436 79 14
-4.0356932 0.58155239 -0.071170911 85 7
-1.3915863 0.20350647 -0.37684056 8 0
-4.083828 0.5979507 0.072043538 82 8
-1.5945241 0.23403701 -0.37206903 6 1
-4.3196154 0.6347847 0.22881283 49 9
-1.8568801 0.27320653 -0.3648268 7 2
-4.3561687 0.64170873 0.38522837 42 10
-2.221909 0.32810262 -0.35573202 2 3
-4.2986412 0.63553393 0.53354406 33 11
-2.825758 0.41827971 -0.35073999 6 4
-4.2832437 0.63478523 0.68580878 11 12
-3.7956858 0.56388324 -0.33572391 6 5
-8.0122471 1.1917186 1.574556 94 13
-4.0734296 0.60659784 -0.2158335 33 6
-8.0162039 1.1951691 1.871143 58 14
-4.0484147 0.60503942 -0.071450152 82 7
-8.0034285 1.197548 2.168386 94 15
-1.3790416 0.20905262 -0.37373474 8 0
-4.0766873 0.61872375 0.071973726 78 8
-1.5913504 0.24208947 -0.37161914 7 1
-4.3320284 0.65979779 0.22965018 48 9
-1.8612466 0.28381351 -0.36597168 6 2
-4.4000196 0.6717248 0.38941187 22 10
-2.2201605 0.33973229 -0.35573202 3 3
-2.8235292 0.43306932 -0.35073999 7 4
-4.3462453 0.66739798 0.6964463 1 12
-3.8084352 0.58617401 -0.33711842 6 5
-8.0233593 1.2363461 1.5779905 97 13
-4.0563807 0.62578589 -0.2151008 21 6
-8.0387249 1.2415864 1.8778914 19 14
-4.0550714 0.62775874 -0.071624674 81 7
-8.0104122 1.2415079 2.1720095 92 15
-1.3970129 0.21926603 -0.37891111 8 0
-4.0911708 0.64285499 0.072287865 79 8
-1.582361 0.24920596 -0.36981952 7 1
-4.3304877 0.68278295 0.22975488 45 9
-1.8733097 0.29569763 -0.36864299 7 2
-4.4338331 0.70066345 0.39272377 33 10
-2.2242048 0.35227922 -0.35667065 1 3
-2.8074992 0.44566849 -0.34903383 6 4
-3.8171189 0.6079877 -0.33816427 6 5
-8.0187149 1.2786477 1.5783721 16 13
-4.0550208 0.64733094 -0.21520546 21 6
-8.0205679 1.281816 1.875192 13 14
-4.0497551 0.64866483 -0.071589775 82 7
-8.0209694 1.2861873 2.1766684 94 15
-1.388218 0.22533947 -0.37684056 8 0
-4.0936704 0.66522938 0.072392583 78 8
-1.5964217 0.25999361 -0.37341875 7 1
-4.3307953 0.70609021 0.22996421 45 9
-1.8542973 0.3026557 -0.36520842 6 2
-4.3730812 0.71455258 0.38766876 15 10
-2.2574191 0.36966676 -0.36230227 2 3
-2.8110039 0.46132657 -0.34976503 6 4
-3.8079858 0.62699342 -0.33764133 6 5
-4.3817549 0.72225237 0.86321992 55 13
-4.0633993 0.67050564 -0.2158335 19 6
-8.0329723 1.3269672 1.8796909 48 14
-4.042357 0.66920775 -0.071519956 82 7
-8.0331831 1.3313231 2.1818447 88 15
-1.3755877 0.23068786 -0.37373474 8 0
-4.0980191 0.68797958 0.072532199 81 8
-1.6065688 0.27028897 -0.37611815 7 1
-4.3349175 0.730084 0.23038292 45 9
-1.8410716 0.3104021 -0.36291873 5 2
-4.3928542 0.7414186 0.38976046 22 10
-2.2476618 0.38016295 -0.36105078 1 3
-2.8163784 0.47736594 -0.35073999 7 4
-3.7909012 0.64458603 -0.33642116 6 5
-8.0377874 1.368147 1.5848596 33 13
-4.0716462 0.69378489 -0.21646154 19 6
-8.0297575 1.3696663 1.8805909 59 14
-4.0427403 0.69103783 -0.071589775 82 7
-8.007061 1.3701094 2.1766684 100 15
-1.374361 0.23788711 -0.37373474 8 0
-4.0904207 0.70874405 0.072462395 70 8
-1.6051316 0.27869669 -0.37611815 7 1
-4.3389063 0.75413913 0.2308016 46 9
-1.849092 0.32172057 -0.3648268 5 2
-4.3496561 0.75757068 0.38627425 42 10
-2.2261808 0.38853055 -0.35792211 1 3
-4.3215961 0.75501615 0.53866255 8 11
-2.8216622 0.49347362 -0.35171497 7 4
-3.7874742 0.66442591 -0.33642116 6 5
-8.036315 1.4112339 1.5860044 37 13
-4.0777936 0.71682405 -0.21698491 22 6
-8.0301533 1.4130412 1.8823904 75 14
-4.0528512 0.71462721 -0.071834102 79 7
-8.0168991 1.4150368 2.1813271 100 15
-1.3883109 0.24779576 -0.3778758 8 0
-4.0886216 0.73050302 0.072497301 73 8
-1.576795 0.28228968 -0.36981952 7 1
-4.352591 0.78001755 0.23174362 39 9
-1.8570443 0.33313105 -0.36673489 6 2
-4.3534737 0.78174418 0.38697147 43 10
-2.2299485 0.40123069 -0.3588607 6 3
-4.3449349 0.78255939 0.54207492 1 11
-2.8112249 0.50683254 -0.35073999 7 4
-4.3564458 0.78620255 0.70113939 3 12
-3.799628 0.68708479 -0.33781564 7 5
-8.0404072 1.4553918 1.5882941 51 13
-4.0464702 0.73317885 -0.21551949 16 6
-8.0245619 1.4554166 1.8828404 30 14
-4.0628266 0.73834062 -0.072078437 82 7
-8.0207844 1.4590694 2.184433 100 15
-1.3907945 0.25576022 -0.37891111 8 0
-4.1024408 0.75515872 0.072811447 68 8
-1.582961 0.29195592 -0.37161914 7 1
-4.3386273 0.80098361 0.23122028 40 9
-1.8649272 0.344634 -0.36864299 6 2
-4.4002585 0.81395119 0.39150357 29 10
-2.2258747 0.41254145 -0.35854784 6 3
-2.8007262 0.52009445 -0.34976503 7 4
-3.7998958 0.70769936 -0.33816427 6 5
-8.0809259 1.5064653 1.5978346 13 13
-4.0563197 0.75692117 -0.21625218 19 6
-8.0264082 1.4992011 1.8850898 58 14
-4.0530081 0.75849944 -0.071973726 81 7
-8.028224 1.5038927 2.1885738 100 15
-1.3856399 0.26232037 -0.3778758 8 0
-4.1279016 0.78221381 0.073335014 71 8
-1.5928978 0.30242106 -0.37431854 7 1
-4.3539953 0.82741904 0.23226699 42 9
-1.8322386 0.3485235 -0.36253712 6 2
-4.3939795 0.83660662 0.39132929 33 10
-2.2353263 0.42641166 -0.36042506 6 3
-2.8018639 0.53549755 -0.35025251 7 4
-4.3091693 0.82435727 0.69488198 3 12
-3.7922246 0.72683537 -0.33781564 6 5
-4.411478 0.84632361 0.873142 19 13
-4.0777993 0.78304565 -0.21761292 16 6
-8.0222769 1.5419418 1.8859898 75 14
-4.0470181 0.7793321 -0.07193882 82 7
-4.5052204 0.86838329 1.2293905 42 15
-1.3614929 0.26514021 -0.37166417 10 0
-4.1433768 0.80764222 0.073684059 74 8
-1.5951177 0.31150454 -0.37521836 7 1
-4.3613644 0.8525036 0.23289503 45 9
-1.8458024 0.36112824 -0.36559007 6 2
-4.3934493 0.86036849 0.39167792 33 10
-2.2253091 0.43658793 -0.35917357 6 3
-4.4743032 0.87863469 0.5598678 30 11
-2.8029175 0.55092621 -0.35073999 6 4
-4.3803844 0.8617785 0.70708382 1 12
-3.7766385 0.74436939 -0.33676979 6 5
-4.4108386 0.87016898 0.8739053 19 13
-4.0677657 0.80322617 -0.21729892 18 6
-8.0312996 1.587325 1.8900387 77 14
-4.0487666 0.80167729 -0.072043538 81 7
-8.0347767 1.5923839 2.1947856 100 15
-1.3676629 0.27378231 -0.37373474 10 0
-4.1469336 0.83089775 0.073823676 71 8
-1.578235 0.3165082 -0.37161914 8 1
-4.3568406 0.87532854 0.23289503 45 9
-1.8477358 0.3715618 -0.36635327 6 2
-4.3693514 0.87942779 0.38993478 33 10
-2.2114522 0.44550538 -0.35729638 6 3
-4.4132113 0.89066005 0.5527994 39 11
-2.7961028 0.56480891 -0.35025251 6 4
-8.1959362 1.6570567 1.3243743 21 12
-3.7747753 0.76387089 -0.3369441 6 5
-8.2005749 1.6624641 1.6264559 30 13
-4.0752478 0.82689643 -0.21792693 18 6
-8.0457945 1.6340103 1.8954376 79 14
-4.0564151 0.82454932 -0.072252966 79 7
-8.0341864 1.6345729 2.1968563 91 15
-1.3737797 0.28249627 -0.37580526 10 0
-4.1660304 0.8574357 0.07424254 78 8
-1.5765562 0.32476768 -0.37161914 7 1
-4.3484421 0.89656228 0.23268569 46 9
-1.8592907 0.38368657 -0.36902463 7 2
-4.3724918 0.90390772 0.39063203 36 10
-2.2168269 0.45867917 -0.35854784 6 3
-4.3814335 0.9073509 0.54938704 66 11
-2.7932081 0.5789538 -0.35025251 6 4
-8.2103567 1.7047663 1.3281288 18 12
-3.7648716 0.78240854 -0.33642116 6 5
-8.1920547 1.7039508 1.6264559 30 13
-4.059279 0.84506983 -0.21729892 18 6
-8.0507755 1.6774946 1.898587 45 14
-4.063787 0.84822851 -0.072462395 79 7
-8.0255175 1.6766185 2.1968563 90 15
-1.3761128 0.29024288 -0.37684056 10 0
-4.1812029 0.88264185 0.074591585 74 8
-1.571021 0.33221194 -0.37071934 7 1
-4.3651824 0.92386699 0.23383708 43 9
-1.8476529 0.39138258 -0.36711654 6 2
-4.3522677 0.9227221 0.38923752 45 10
-2.2221243 0.47192144 -0.35979933 6 3
-4.3843884 0.93193102 0.55036199 70 11
-2.7901385 0.59357083 -0.35025251 6 4
-8.2093506 1.7479452 1.3293802 60 12
-3.7743635 0.80501944 -0.33764133 6 5
-8.1907015 1.7484598 1.6279825 15 13
-4.0587044 0.86714762 -0.21750826 19 6
-4.4666982 0.95594651 1.0545706 45 14
-4.0632005 0.87033302 -0.072532199 81 7
-8.0317402 1.7218537 2.2009974 92 15
-1.3782984 0.29850245 -0.3778758 10 0
-4.2017722 0.91075784 0.075045347 69 8
-1.5654511 0.3396064 -0.36981952 7 1
-4.3661399 0.94798219 0.23415108 45 9
-1.8339978 0.39887002 -0.3648268 7 2
-4.3822546 0.95388389 0.39237517 33 10
-2.2254128 0.48481113 -0.36073789 6 3
-4.3813887 0.95529723 0.55060571 70 11
-2.7830076 0.6078108 -0.34976503 7 4
-8.1978436 1.7919158 1.3290673 75 12
-3.7623112 0.82306826 -0.3369441 6 5
-8.2006121 1.7955184 1.6317985 16 13
-4.0617566 0.89080566 -0.21792693 21 6
-8.0438805 1.765618 1.9012864 66 14
-4.0507755 0.88987923 -0.072392583 79 7
-8.0317392 1.7673613 2.2035854 100 15
-1.3616292 0.30236435 -0.37373474 10 0
-4.2106099 0.93578321 0.075289682 84 8
-1.5826739 0.35202977 -0.37431854 8 1
-4.3687449 0.97332835 0.23456979 46 9
-1.8357166 0.40932214 -0.36559007 6 2
-4.3616433 0.97334421 0.39098063 33 10
-2.2132044 0.49430412 -0.35917357 6 3
-4.4090886 0.98635572 0.55474925 72 11
-2.7797868 0.62237459 -0.34976503 6 4
-8.1825666 1.8335186 1.3281288 75 12
-3.7579503 0.84275603 -0.3369441 6 5
-4.4267745 0.99436921 0.88191921 26 13
-4.0609345 0.91293657 -0.2181363 19 6
-8.0402298 1.8089938 1.9026359 71 14
-4.0441098 0.91063815 -0.072357684 84 7
-8.0415373 1.8122373 2.2087619 74 15
-1.3637948 0.31034717 -0.37476999 8 0
-4.2017536 0.95692855 0.075219877 63 8
-1.5732092 0.3585794 -0.37251896 7 1
-4.3793406 0.99898112 0.23540714 46 9
-1.8336214 0.41860813 -0.36559007 6 2
-4.3681412 0.9988327 0.39202651 33 10
-2.2028837 0.50412285 -0.35792211 6 3
-4.4040399 1.0086591 0.55474925 74 11
-2.7804711 0.6373232 -0.35025251 6 4
-8.1901817 1.8803144 1.3309445 16 12
-3.7496023 0.86152929 -0.33659548 6 5
-8.1928406 1.8839374 1.6340883 25 13
-4.0659933 0.9357183 -0.21865964 21 6
-8.0556574 1.855353 1.9084847 75 14
-4.0548744 0.93539512 -0.072636917 85 7
-8.0357027 1.8551881 2.2097969 100 15
-1.3659695 0.31812254 -0.37580526 8 0
-4.255281 0.99180031 0.076267019 49 8
-1.5675144 0.36592597 -0.37161914 8 1
-4.3779402 1.022806 0.23561651 46 9
-1.840963 0.43043789 -0.36749816 7 2
-4.3669095 1.0218376 0.39237517 36 10
-2.1925211 0.51384753 -0.35667065 6 3
-4.3967652 1.031252 0.55450553 71 11
-2.7848263 0.65368724 -0.35122749 7 4
-4.4018102 1.0340564 0.71615702 31 12
-3.762495 0.88525587 -0.33816427 6 5
-8.2000628 1.9308584 1.6375229 31 13
-4.0513186 0.954705 -0.2181363 19 6
-8.0477285 1.8979514 1.9089346 76 14
-4.2231274 0.99752647 -0.075743444 14 7
-8.048439 1.9025718 2.2160087 86 15
-1.3680435 0.32616597 -0.37684056 8 0
-4.378406 1.0446987 0.078570738 60 8
-1.5617864 0.37322241 -0.37071934 8 1
-4.3686395 1.0447862 0.23540714 46 9
-1.8310466 0.43824318 -0.36597168 7 2
-4.3634367 1.0451523 0.39254946 47 10
-2.2090094 0.52992779 -0.35979933 7 3
-4.4048171 1.0575027 0.55621171 72 11
-2.7620637 0.6636225 -0.34879011 7 4
-8.1934338 1.9700938 1.334699 61 12
-3.751997 0.9035452 -0.33764133 6 5
-8.1955662 1.9751482 1.6386677 30 13
-4.0501471 0.97684073 -0.21834564 19 6
-8.0376806 1.9400643 1.9089346 25 14
-4.0701246 0.98391426 -0.07309068 69 7
-8.0477562 1.9469559 2.2185969 100 15
-1.3625634 0.33240905 -0.37580526 7 0
-4.3864746 1.0709293 0.078815073 61 8
-1.5673827 0.38324606 -0.37251896 8 1
-4.3786292 1.0714434 0.23624454 45 9
-1.8210993 0.44595686 -0.36444521 7 2
-4.3753209 1.0722526 0.39411828 31 10
-2.1966119 0.53913289 -0.35823497 7 3
-4.4088588 1.0829201 0.55743045 75 11
-2.7585511 0.67807525 -0.34879011 7 4
-8.1964331 2.0162697 1.3368891 63 12
-3.7414112 0.92174816 -0.33711842 5 5
-8.2060814 2.0232 1.6428655 28 13
-4.0643682 1.0028189 -0.21939236 21 6
-8.0652504 1.991467 1.9179326 50 14
-4.0493879 1.0013722 -0.072811447 79 7
-1.364553 0.34047407 -0.37684056 8 0
-4.3711061 1.0914594 0.078640543 60 8
-1.5729166 0.39333847 -0.37431854 8 1
-4.3865218 1.0977499 0.23697723 43 9
-1.8244524 0.45691711 -0.36559007 6 2
-4.3677139 1.0946621 0.39394394 31 10
-2.2014227 0.55255079 -0.35948643 7 3
-4.41468 1.1088901 0.55889291 67 11
-2.7665141 0.69541365 -0.35025251 6 4
-3.7307377 0.93986583 -0.33659548 6 5
-8.2010851 2.06758 1.6440103 15 13
-4.059062 1.0240848 -0.21939236 18 6
-8.069829 2.0374849 1.921532 79 14
-4.0518436 1.0245214 -0.072951064 78 7
-8.0400372 2.0344415 2.2222204 72 15
-1.3477763 0.34379447 -0.37269944 8 0
-4.3827696 1.1187825 0.078954689 54 8
-1.5632834 0.39963847 -0.37251896 8 1
-4.392324 1.1236712 0.23760527 43 9
-1.8372504 0.47035873 -0.36864299 6 2
-4.375433 1.1209785 0.39516413 35 10
-2.1812789 0.55965137 -0.35667065 6 3
-4.3972769 1.1290287 0.55743045 67 11
-2.780139 0.71433473 -0.35244617 6 4
-4.6336379 1.1914399 0.75776863 24 12
-3.7199764 0.95789695 -0.33607253 6 5
-8.1939497 2.1114717 1.6447737 13 13
-4.0497756 1.0443269 -0.21918301 18 6
-8.0590496 2.0797117 1.921532 41 14
-4.0619125 1.0497251 -0.073230296 90 7
-8.0461063 2.0808654 2.2268791 100 15
-1.357174 0.35377023 -0.37580526 8 0
-4.3787866 1.1422206 0.078989588 52 8
-1.5498567 0.40486294 -0.36981952 8 1
-4.3921766 1.1481699 0.23791927 40 9
-1.8233665 0.47699076 -0.36635327 7 2
-4.3829956 1.1474043 0.39638433 36 10
-2.1706753 0.5690614 -0.35541913 6 3
-4.4009056 1.1545553 0.55864912 66 11
-2.75524 0.72333735 -0.34976503 7 4
-4.5146136 1.1860716 0.73930937 21 12
-3.7168374 0.97786731 -0.33624685 6 5
-8.1751871 2.1523478 1.6432471 15 13
-4.0519776 1.0675521 -0.21960169 18 6
-8.0631256 2.1258519 1.9251312 42 14
-4.062161 1.0725098 -0.073335014 84 7
-8.0444393 2.1254327 2.2294674 100 15
-1.3702375 0.36484796 -0.37994638 8 0
-4.3882041 1.1692506 0.079268835 52 8
-1.540184 0.41096306 -0.36801991 8 1
-4.3861046 1.171151 0.23791927 42 9
-1.8360177 0.49058557 -0.36940622 6 2
-4.3807769 1.1713679 0.39673293 38 10
-2.1829314 0.58450598 -0.35792211 7 3
-4.404387 1.1801522 0.5598678 45 11
-2.7667539 0.74186647 -0.35171497 7 4
-4.4453816 1.1927986 0.72898471 36 12
-3.7309077 1.0024859 -0.33798996 6 5
-8.1789732 2.1992009 1.6463001 13 13
-4.0559754 1.0913489 -0.22012506 21 6
-8.0594101 2.170069 1.9269307 71 14
-4.0603514 1.0948064 -0.073404826 84 7
-8.0593128 2.1745691 2.2367141 84 15
-1.3459383 0.36593533 -0.37373474 8 0
-4.3935995 1.1953617 0.079478264 52 8
-1.5643342 0.42619279 -0.37431854 8 1
-4.3934011 1.1977787 0.23865199 42 9
-1.7955432 0.48985794 -0.36177388 6 2
-4.386116 1.1974365 0.39777881 38 10
-2.1931791 0.59957439 -0.36011216 7 3
-4.4268684 1.211054 0.56352389 33 11
-2.7513435 0.75319844 -0.35025251 7 4
-4.4714632 1.2249314 0.73430347 63 12
-3.7025504 1.0156817 -0.33589822 6 5
-8.1900654 2.2482314 1.6508795 30 13
-4.0598354 1.1152159 -0.22064841 19 6
-4.0449228 1.1133983 -0.073230296 78 7
-8.0571289 2.2193017 2.2393024 82 15
-1.3440038 0.37297779 -0.37373474 10 0
-4.3930607 1.2199539 0.079582974 58 8
-1.5620811 0.43437797 -0.37431854 7 1
-4.3947659 1.2229084 0.23907068 43 9
-1.8118668 0.50451887 -0.36559007 6 2
-4.3778672 1.2198515 0.3976045 33 10
-2.1804962 0.60839504 -0.35854784 7 3
-4.4338503 1.2379527 0.56523001 64 11
-2.7473619 0.76759452 -0.35025251 7 4
-4.4174275 1.2350296 0.72648174 15 12
-3.7048562 1.0372034 -0.33659548 6 5
-8.1857433 2.2932012 1.6524061 30 13
-4.0539408 1.1364574 -0.22064841 19 6
-8.0587597 2.2606633 1.9323295 44 14
-4.0467381 1.1367248 -0.073369913 79 7
-8.049118 2.2625053 2.2403376 80 15
-1.3420324 0.38000977 -0.37373474 8 0
-4.3846884 1.2423944 0.079548068 52 8
-1.5522865 0.44042331 -0.37251896 7 1
-4.395988 1.2480829 0.23948936 43 9
-1.8092 0.5139991 -0.36559007 6 2
-4.3790855 1.244936 0.39830172 33 10
-2.1677811 0.61709976 -0.35698348 5 3
-4.4292178 1.2616949 0.56547379 74 11
-2.75476 0.7852332 -0.35171497 7 4
-4.4203982 1.2608521 0.72804612 26 12
-3.6840484 1.05221 -0.335201 6 5
-8.1736231 2.3360314 1.6524061 30 13
-4.0594563 1.1609627 -0.22127645 19 6
-8.0692949 2.3092608 1.9377284 71 14
-4.0618768 1.163957 -0.073753871 76 7
-8.0613022 2.3115408 2.247067 87 15
-1.3437363 0.38810369 -0.37476999 7 0
-4.3954134 1.2703322 0.079862215 50 8
-1.5462934 0.44719154 -0.37161914 7 1
-4.4009037 1.2744161 0.2401174 37 9
-1.8102555 0.52455723 -0.36635327 6 2
-4.391643 1.273397 0.40004486 31 10
-2.1836016 0.63356835 -0.36011216 7 3
-4.4301753 1.2870848 0.56644875 82 11
-2.7506106 0.79964674 -0.35171497 7 4
-4.4440837 1.2928078 0.73305202 29 12
-3.6958926 1.0758545 -0.33676979 6 5
-4.472683 1.3036679 0.90557957 14 13
-4.0533218 1.1822027 -0.22127645 21 6
-8.0720587 2.3558469 1.9413276 74 14
-4.0636115 1.1867431 -0.073893487 76 7
-8.0736055 2.3593569 2.2537963 100 15
-1.3490984 0.39731678 -0.37684056 8 0
-4.3944559 1.2950256 0.079966925 48 8
-1.5514073 0.45748675 -0.37341875 7 1
-4.3943968 1.2966754 0.2401174 39 9
-1.8151089 0.53593713 -0.36787975 6 2
-4.396379 1.299763 0.40109071 43 10
-2.1594179 0.63882869 -0.35667065 6 3
-4.3969564 1.3016026 0.56303644 61 11
-2.7313011 0.80904794 -0.34976503 7 4
-4.446723 1.3188672 0.73461634 40 12
-3.715039 1.1025614 -0.33903584 6 5
-8.1265516 2.4133654 1.6478267 25 13
-4.047286 1.2027038 -0.22127645 18 6
-4.0611749 1.2091455 -0.073963299 76 7
-8.0852098 2.4087694 2.2605255 100 15
-1.3507708 0.40525055 -0.3778758 8 0
-4.4031668 1.3218507 0.080246165 52 8
-1.5490718 0.46533349 -0.37341875 7 1
-4.3971105 1.3225424 0.24064074 40 9
-1.804758 0.54317069 -0.36635327 6 2
-4.3897443 1.321998 0.40109071 33 10
-2.1750705 0.65544963 -0.35979933 7 3
-4.4470949 1.3418093 0.57034856 77 11
-2.7232268 0.82219076 -0.34927759 7 4
-4.4721365 1.3510696 0.7399351 36 12
-3.6903396 1.1155841 -0.3372927 6 5
-4.0600486 1.2296669 -0.22232316 19 6
-4.5300269 1.3728735 1.0928122 10 14
-4.049262 1.2279443 -0.073858589 81 7
-8.0729151 2.4496591 2.2605255 82 15
-1.3264612 0.40553999 -0.37166417 8 0
-4.398098 1.345472 0.080281071 50 8
-1.5466143 0.47343752 -0.37341875 8 1
-4.407547 1.3500464 0.2415828 42 9
-1.7907233 0.54884595 -0.36406359 6 2
-4.4056187 1.3519793 0.40318248 33 10
-2.1772738 0.66856855 -0.36073789 7 3
-4.4326563 1.3619695 0.56937367 72 11
-2.7304151 0.83946365 -0.35073999 7 4
-4.483881 1.3802783 0.74306375 45 12
-3.6844478 1.134892 -0.3372927 6 5
-4.8761468 1.5028923 0.99182522 22 13
-4.0728579 1.2560875 -0.22336988 19 6
-4.9959917 1.541741 1.2070874 31 14
-4.0504198 1.2514902 -0.073998205 76 7
-8.0655146 2.4936082 2.2620785 88 15
-1.3316975 0.41477758 -0.37373474 10 0
-4.400538 1.3714575 0.080455594 52 8
-1.5440301 0.48179877 -0.37341875 8 1
-4.4116173 1.377445 0.24221084 39 9
-1.7989712 0.56203967 -0.36635327 6 2
-4.3927746 1.3732446 0.40265954 40 10
-2.1396911 0.66971821 -0.35510629 7 3
-4.4479547 1.3930514 0.57229847 68 11
-2.744776 0.86016041 -0.3531774 7 4
-4.4897871 1.4078739 0.74525392 52 12
-3.6782537 1.1548097 -0.3372927 6 5
-5.0102916 1.5739729 1.0208282 47 13
-4.0736241 1.2805008 -0.22378856 19 6
-4.7756557 1.502093 1.1557984 36 14
-4.0512185 1.2757889 -0.074137822 81 7
-8.0611172 2.540112 2.2646666 86 15
-1.3368732 0.424081 -0.37580526 8 0
-4.4009209 1.3968992 0.08059521 52 8
-1.5191996 0.48279399 -0.36801991 8 1
-4.4214749 1.4059719 0.24315289 40 9
-1.7941328 0.57085592 -0.36597168 7 2
-4.3893209 1.3974346 0.40300813 43 10
-2.1530941 0.68631154 -0.35792211 6 3
-4.9852729 1.5900451 0.64249521 24 11
-2.7251055 0.86969221 -0.35122749 7 4
-4.4710631 1.4277571 0.74337667 10 12
-3.6607699 1.1704131 -0.33624685 6 5
-8.1022758 2.5919981 1.6535509 45 13
-4.0611563 1.2999864 -0.22347455 45 6
-5.0368266 1.6132703 1.2210344 28 14
-4.0616207 1.30248 -0.074451968 76 7
-8.0789785 2.5923204 2.2734666 73 15
-1.349341 0.43582508 -0.37994638 10 0
-4.4144769 1.4266874 0.080979168 58 8
-1.5277756 0.49434131 -0.37071934 7 1
-4.4121518 1.4284889 0.24304819 43 9
-1.7892514 0.57963729 -0.36559007 6 2
-4.4255357 1.4345276 0.40701729 33 10
-2.1494708 0.69757599 -0.35792211 6 3
-4.4331231 1.4395524 0.57229847 11 11
-2.7129626 0.88149494 -0.35025251 7 4
-8.1098671 2.63662 1.3506554 60 12
-3.6678536 1.1938813 -0.33746704 6 5
-8.0997944 2.6380351 1.6558405 66 13
-4.0523949 1.3206146 -0.22336988 70 6
-8.0834637 2.6358376 1.9629229 67 14
-4.0604482 1.3255911 -0.074556686 81 7
-4.5927372 1.5002501 1.2946129 37 15
-1.3286885 0.43685058 -0.37476999 10 0
-4.4031472 1.4485316 0.080909356 8 8
-1.5362718 0.50599194 -0.37341875 7 1
-4.3989215 1.4496943 0.24273418 30 9
-1.7824631 0.58776802 -0.3648268 6 2
-4.4103956 1.4551836 0.40632007 50 10
-2.1532915 0.71129912 -0.35917357 6 3
-4.431179 1.4646139 0.5730297 44 11
-2.7120793 0.89693487 -0.35073999 7 4
-7.9740515 2.6387086 1.3303189 42 12
-3.661552 1.2130703 -0.33746704 6 5
-7.983376 2.6464324 1.6348516 54 13
-4.0700698 1.3499875 -0.22473061 75 6
-7.9696755 2.6449807 1.9386281 45 14
-4.053452 1.3468319 -0.074556686 79 7
-7.9762282 2.651792 2.2522435 100 15
-1.3153909 0.44012353 -0.37166417 10 0
-6.3694963 2.1324391 0.11724527 2 8
-1.5262998 0.51128507 -0.37161914 8 1
-4.3685474 1.4650871 0.24147813 30 9
-1.786806 0.59959149 -0.36635327 6 2
-4.3913836 1.4744511 0.40527418 43 10
-2.1440463 0.72030139 -0.35823497 5 3
-4.4629617 1.5010847 0.57814825 17 11
-2.7111089 0.91238844 -0.35122749 8 4
-7.9713583 2.6842077 1.3321961 73 12
-3.645925 1.2284055 -0.33659548 6 5
-7.97685 2.6907079 1.636378 52 13
-4.0818686 1.3776674 -0.22577733 76 6
-7.9612575 2.6885417 1.9399779 52 14
-4.0503716 1.3686117 -0.07462649 79 7
-7.959043 2.6908913 2.2512081 81 15
-1.3276986 0.4519856 -0.37580526 10 0
-4.3839517 1.4932721 0.080839552 22 8
-1.5309801 0.52178425 -0.37341875 7 1
-4.3743086 1.4916925 0.24221084 28 9
-1.7837483 0.6086275 -0.36635327 7 2
-4.4099989 1.5064415 0.40771458 31 10
-2.12903 0.72768474 -0.35635775 6 3
-7.9752254 2.7274179 1.0349146 34 11
-2.7064562 0.9260993 -0.35122749 7 4
-7.9646702 2.728467 1.3334475 42 12
-3.6319039 1.244895 -0.33589822 6 5
-7.9724145 2.7342317 1.6382861 85 13
-4.0710659 1.3970132 -0.22556801 76 6
-4.5562005 1.5643792 1.1121581 36 14
-4.0658436 1.3976009 -0.075045347 76 7
-7.9521527 2.7350402 2.2532787 86 15
-1.3217428 0.45743614 -0.37476999 10 0
-4.3838959 1.518059 0.080979168 46 8
-1.5153383 0.52532536 -0.37026942 6 1
-4.3985167 1.5257014 0.24399024 16 9
-1.7694088 0.6140964 -0.36406359 7 2
-2.1307883 0.74076807 -0.35729638 6 3
-7.9664588 2.771096 1.0356457 64 11
-2.6959453 0.93830043 -0.35049626 6 4
-7.9787412 2.778491 1.3381406 54 12
-3.6234546 1.2632393 -0.33572391 6 5
-7.9654045 2.7785237 1.6398127 84 13
-4.071238 1.4209423 -0.22598669 75 6
-7.9754639 2.7851574 1.9503256 72 14
-4.0697961 1.4228296 -0.075254776 76 7
-7.9523101 2.7817438 2.2574198 84 15
-1.3193295 0.46435037 -0.37476999 8 0
-1.5217564 0.53649199 -0.37251896 7 1
-4.4319048 1.5633284 0.24629304 6 9
-1.7846824 0.62988693 -0.36787975 6 2
-4.497581 1.5882607 0.41730168 24 10
-2.1324677 0.75389028 -0.35823497 6 3
-7.9555845 2.8140938 1.0361333 45 11
-2.6778965 0.94776642 -0.34879011 6 4
-7.9808412 2.8261647 1.3409564 78 12
-3.6374474 1.2895161 -0.33764133 7 5
-7.9710994 2.8274124 1.6440103 87 13
-4.0675063 1.4435751 -0.22619602 75 6
-7.9570999 2.8255739 1.9494258 66 14
-4.0679431 1.4461287 -0.075359493 75 7
-7.9631186 2.8324072 2.2646666 100 15
-1.3241556 0.47385579 -0.37684056 8 0
-4.5014267 1.6117435 0.083457403 53 8
-1.5280986 0.54774052 -0.37476847 7 1
-4.5402193 1.6283156 0.2527827 14 9
-1.766577 0.63391757 -0.3648268 6 2
-4.5342078 1.6279472 0.42148519 1 10
-2.1396451 0.76905376 -0.36011216 5 3
-7.9855714 2.8718343 1.0419829 37 11
-2.6766329 0.96311939 -0.34927759 7 4
-7.964076 2.8672435 1.3406435 46 12
-3.63252 1.3092201 -0.33781564 6 5
-4.0730433 1.4695985 -0.22692874 75 6
-7.9660244 2.8757999 1.9552746 69 14
-4.0565534 1.4660496 -0.075289682 75 7
-4.6199365 1.6705693 1.3163538 36 15
-1.2926091 0.47021547 -0.36855832 8 0
-4.5135965 1.6428148 0.083841361 51 8
-1.5233788 0.55506641 -0.37431854 7 1
-4.5466428 1.657539 0.25362006 60 9
-1.7577003 0.64114058 -0.36368197 7 2
-4.5331087 1.6543977 0.42218241 16 10
-2.137444 0.78092456 -0.36042506 6 3
-4.5286927 1.6554737 0.59204131 15 11
-2.6901965 0.98393953 -0.35171497 7 4
-4.5078082 1.649623 0.76027155 15 12
-3.6443233 1.3350751 -0.33955875 8 5
-8.000041 2.932349 1.6562221 63 13
-4.0765433 1.4950303 -0.22755675 75 6
-7.9709826 2.924854 1.9602236 71 14
-4.0563302 1.4900281 -0.075429298 75 7
-7.9584084 2.9249692 2.2719138 100 15
-1.3191209 0.48769584 -0.37684056 8 0
-1.5241065 0.56438887 -0.37521836 7 1
-4.5210457 1.675078 0.25267801 58 9
-1.758001 0.65169972 -0.36444521 6 2
-4.5411963 1.6843456 0.42375124 69 10
-2.1222148 0.78797966 -0.35854784 6 3
-4.5683446 1.6971364 0.59837854 46 11
-2.6775644 0.99524558 -0.35073999 8 4
-7.9836044 2.9690745 1.3490911 15 12
-3.6204782 1.3478826 -0.33798996 10 5
-7.9625001 2.9659722 1.6516427 18 13
-4.0742741 1.5184475 -0.22787078 76 6
-7.9920769 2.9801686 1.9692216 26 14
-4.0672069 1.5182395 -0.075778343 78 7
-7.9574618 2.9720073 2.2760549 74 15
-1.294848 0.48644325 -0.37062889 8 0
-1.5028915 0.56549835 -0.37071934 7 1
-4.5215592 1.702244 0.2532014 9 9
-1.7692624 0.6664322 -0.36749816 6 2
-4.5416365 1.7116128 0.42462277 28 10
-2.1180599 0.79908109 -0.35854784 6 3
-4.5296812 1.709816 0.59447873 37 11
-2.6686027 1.0078487 -0.35025251 7 4
-4.5863752 1.7330465 0.77654076 46 12
-3.6003265 1.3618863 -0.33676979 8 5
-4.5720158 1.7303569 0.95022881 22 13
-4.0681357 1.5404656 -0.22797546 75 6
-7.9800076 3.0233538 1.9701214 50 14
-4.0648108 1.5416415 -0.075883061 76 7
-7.9724956 3.0252824 2.2848547 82 15
-1.306722 0.49872741 -0.37476999 8 0
-1.5035505 0.57475156 -0.37161914 7 1
-5.9210186 2.2645686 0.33222869 14 9
-1.7547473 0.67147684 -0.36520842 6 2
-8.0009165 3.0632558 0.74953938 52 10
-2.1175358 0.81157392 -0.35917357 6 3
-4.5466151 1.743461 0.59789103 39 11
-2.6632891 1.0218074 -0.35025251 7 4
-4.5698614 1.7542049 0.7752893 50 12
-3.6117444 1.3878651 -0.3385129 6 5
-4.5738883 1.7584989 0.95251852 17 13
-4.069335 1.5653311 -0.2284988 75 6
-7.9804358 3.0713966 1.9741703 46 14
-4.0641479 1.5657791 -0.076022685 76 7
-7.9871898 3.0787981 2.2936544 100 15
-1.3040929 0.50556242 -0.37476999 8 0
-1.5005205 0.58261609 -0.37161914 7 1
-7.8024426 3.0310683 0.43867999 11 9
-1.7475476 0.67923278 -0.36444521 7 2
-7.8195014 3.0408368 0.7340256 12 10
-2.1077354 0.8205002 -0.35823497 5 3
-7.7800269 3.0301764 1.0251651 12 11
-2.6468048 1.0314136 -0.34879011 8 4
-4.5348473 1.7680634 0.77090919 39 12
-3.5914359 1.4016861 -0.3372927 6 5
-4.5627894 1.7817101 0.95213693 39 13
-4.0722442 1.5909779 -0.22912684 75 6
-7.9696908 3.1152654 1.9755201 15 14
-4.0521688 1.5855806 -0.075952873 76 7
-7.9817548 3.1247997 2.2967603 81 15
-1.2906426 0.50813729 -0.37166417 8 0
-1.5193088 0.59877771 -0.37701797 7 1
-7.6935692 3.0352328 0.43344644 11 9
-1.7439673 0.68837351 -0.36444521 7 2
-7.8108845 3.0846665 0.73472291 4 10
-2.110904 0.8340618 -0.35948643 6 3
-7.8698158 3.1111131 1.0390581 11 11
-2.6561346 1.0511018 -0.35073999 7 4
-7.8480444 3.1072586 1.3368891 10 12
-3.5879998 1.421314 -0.33764133 6 5
-4.0749979 1.6166972 -0.22975488 76 6
-7.6779575 3.0476711 1.9071351 9 14
-4.055243 1.6104974 -0.076162301 76 7
-1.2880541 0.51466352 -0.37166417 10 0
-1.5017835 0.60067058 -0.37341875 7 1
-7.5891094 3.0384986 0.42842221 11 9
-1.7459282 0.69938207 -0.36559007 7 2
-7.821064 3.1345377 0.73716325 6 10
-2.0993216 0.84179395 -0.35823497 6 3
-7.8760767 3.1597769 1.0419829 11 11
-2.6581492 1.0674906 -0.35171497 7 4
-7.8670425 3.1609352 1.3428336 12 12
-3.5789115 1.438713 -0.33746704 6 5
-4.076026 1.641031 -0.23027822 75 6
-4.5967369 1.8516058 1.1441011 15 14
-4.0544586 1.6339927 -0.076301925 78 7
-7.9765892 3.2162738 2.3045249 54 15
-1.2961746 0.52553117 -0.37476999 10 0
-6.0390491 2.4497483 0.11375479 2 8
-1.4841733 0.60266018 -0.36981952 7 1
-6.8834386 2.7964737 0.38937956 39 9
-1.7460034 0.70968843 -0.36635327 7 2
-7.5024171 3.0509923 0.70857614 8 10
-2.0857372 0.84905088 -0.35667065 6 3
-7.4751859 3.0444798 0.99104154 9 11
-2.6416819 1.0764369 -0.35025251 7 4
-7.4668097 3.0441074 1.2771312 10 12
-3.5842423 1.4627014 -0.33868721 6 5
-7.5302763 3.0745807 1.5810434 10 13
-4.0639701 1.6601309 -0.23006889 73 6
-7.46452 3.0507727 1.8616948 24 14
-4.0680566 1.664286 -0.076720782 78 7
-7.8916988 3.2301874 2.2848547 46 15
-1.2934051 0.53231084 -0.37476999 8 0
-6.8989048 2.8407056 0.13022986 2 8
-1.4846009 0.61190814 -0.37071934 7 1
-6.85393 2.8263845 0.38854218 29 9
-1.7585974 0.72555953 -0.36978784 7 2
-5.6962485 2.3513134 0.53914541 2 10
-2.0867398 0.86222333 -0.35760921 5 3
-7.3857622 3.053242 0.98129201 38 11
-2.6250031 1.0857021 -0.34879011 7 4
-7.3540287 3.0431316 1.2605491 15 12
-3.576534 1.4814489 -0.33868721 6 5
-7.4143219 3.072629 1.5600544 15 13
-4.0699816 1.6875051 -0.23090626 75 6
-4.5918269 1.9048141 1.1477003 11 14
-4.0703673 1.6901642 -0.076930203 74 7
-7.9585271 3.3062978 2.3091838 37 15
-1.3012956 0.54354346 -0.3778758 8 0
-1.4849721 0.62117738 -0.37161914 7 1
-5.6930571 2.3826234 0.32343623 15 9
-1.7294214 0.72414207 -0.36444521 7 2
-5.6268916 2.3572423 0.53374171 23 10
-2.0949488 0.87848485 -0.35979933 6 3
-5.6453242 2.3684392 0.75169015 4 11
-2.6192827 1.0994308 -0.34879011 7 4
-7.6731129 3.2223279 1.318117 18 12
-3.5815852 1.5055605 -0.33990738 5 5
-7.2967877 3.0687852 1.5386838 13 13
-4.0721359 1.7134407 -0.2315343 73 6
-4.5943627 1.9341242 1.1508496 16 14
-4.0540915 1.708347 -0.076790586 74 7
-7.9909501 3.368938 2.3236775 62 15
-1.2913172 0.5473339 -0.37580526 8 0
-1.4870808 0.63122833 -0.37296885 7 1
-5.6327057 2.3921018 0.32071477 33 9
-1.7364478 0.73779321 -0.36673489 6 2
-5.6053047 2.3827746 0.53287023 31 10
-2.0939553 0.89098907 -0.36042506 6 3
-5.6054492 2.386302 0.74803412 37 11
-2.6171427 1.1146864 -0.34927759 7 4
-7.5979824 3.2376809 1.3081051 16 12
-3.5424986 1.5110031 -0.3369441 6 5
-7.2029734 3.0738151 1.5222743 13 13
-4.0851507 1.7441494 -0.23279037 72 6
-4.6110544 1.9696347 1.1575981 9 14
-4.0561228 1.7342674 -0.077000014 74 7
-7.9767537 3.4122491 2.3247128 100 15
-1.2848843 0.55256116 -0.37476999 8 0
-1.4855452 0.639777 -0.37341875 7 1
-5.6274409 2.4247224 0.32113346 40 9
-1.728955 0.74532098 -0.36597168 6 2
-5.6073866 2.4184041 0.53426468 19 10
-2.074753 0.89567661 -0.35792211 6 3
-5.583765 2.4116845 0.74681538 40 11
-2.629493 1.1362484 -0.35171497 6 4
-7.4902673 3.2382224 1.2924616 13 12
-3.5546525 1.5382346 -0.33886153 4 5
-7.0840874 3.0670245 1.500522 16 13
-4.0796275 1.7671033 -0.2329997 72 6
-7.2863441 3.157613 1.8333511 26 14
-4.0671663 1.7642354 -0.077383965 73 7
-7.517509 3.2624669 2.1958208 25 15
-1.285515 0.56082606 -0.37580526 8 0
-1.4750321 0.64442527 -0.37161914 7 1
-5.6036873 2.4493558 0.32050541 40 9
-1.732224 0.75751024 -0.36749816 6 2
-5.5873466 2.444535 0.53356743 29 10
-2.0736535 0.90811282 -0.35854784 6 3
-5.5692434 2.4400895 0.74657166 27 11
-2.6053264 1.1420316 -0.34927759 7 4
-5.6153088 2.4626105 0.97114527 6 12
-3.5429006 1.5552243 -0.3385129 5 5
-7.0104094 3.0788133 1.4883102 15 13
-4.0666628 1.7868329 -0.23279037 73 6
-7.2768474 3.1988571 1.8351506 16 14
-4.0743465 1.7927548 -0.077698112 76 7
-4.6430578 2.043961 1.3593177 9 15
-1.2931606 0.57224 -0.37891111 8 0
-1.4716375 0.65213996 -0.37161914 7 1
-5.5761795 2.4721851 0.31966805 43 9
-1.7246447 0.76497757 -0.36673489 5 2
-5.5635433 2.4689088 0.53252155 31 10
-2.0616493 0.91575027 -0.35729638 6 3
-5.5455065 2.4643805 0.74510926 40 11
-2.5993109 1.1556578 -0.34927759 6 4
-5.6167769 2.4984004 0.97364825 14 12
-3.5474498 1.5794268 -0.33973309 4 5
-6.9547386 3.0979025 1.4799147 36 13
-4.0754938 1.8162309 -0.23383708 72 6
-4.6400623 2.0688009 1.1728948 12 14
-4.0703816 1.8165088 -0.077802829 69 7
-7.3488684 3.2811527 2.1564806 45 15
-1.2866216 0.57742095 -0.3778758 8 0
-1.4699802 0.66063511 -0.37206903 7 1
-5.5595145 2.4997106 0.31945869 40 9
-1.7206155 0.77399749 -0.36673489 6 2
-5.5578079 2.5012755 0.53321886 27 10
-2.0712347 0.93302339 -0.35979933 6 3
-5.5632935 2.5072479 0.7492528 42 11
-2.5932248 1.1692511 -0.34927759 6 4
-5.5856118 2.519654 0.97051954 2 12
-3.5336835 1.5955194 -0.33921015 4 5
-6.9581032 3.1431663 1.4841125 34 13
-4.0823088 1.8449476 -0.23477912 70 6
-4.6469235 2.1010962 1.1773938 24 14
-4.0644593 1.8394442 -0.077872641 69 7
-7.3087096 3.309227 2.1497512 93 15
-1.2695138 0.57774836 -0.37373474 10 0
-6.3661327 2.8985293 0.12209704 46 8
-1.4648443 0.66725898 -0.37161914 7 1
-5.5499854 2.5304427 0.31966805 42 9
-1.7111809 0.78055114 -0.36559007 6 2
-5.5482597 2.531997 0.53356743 29 10
-2.0664861 0.9434942 -0.35979933 6 3
-5.5609221 2.5412943 0.7507152 48 11
-2.5852616 1.181988 -0.34903383 6 4
-3.5219398 1.6117262 -0.33886153 4 5
-6.9593997 3.1877308 1.4879286 36 13
-4.0943809 1.8762826 -0.23603518 70 6
-7.2823896 3.3387508 1.8495475 34 14
-4.0678196 1.865829 -0.078116976 68 7
-7.3041577 3.3518167 2.1533747 63 15
-1.2699798 0.58600599 -0.37476999 10 0
-1.4754838 0.68145669 -0.37521836 7 1
-5.5516114 2.5652027 0.32050541 43 9
-1.7089902 0.79002625 -0.36597168 6 2
-5.5457754 2.5660322 0.53461331 27 10
-2.0507617 0.9493227 -0.35792211 6 3
-5.5443854 2.567739 0.75022775 58 11
-2.5918539 1.2008995 -0.35073999 6 4
-5.5642972 2.5804994 0.9714582 25 12
-3.5098379 1.6284674 -0.3385129 5 5
-6.9538612 3.2278738 1.4902184 39 13
-4.0957003 1.902029 -0.23666322 70 6
-7.2813029 3.3829589 1.8535968 41 14
-4.0761266 1.8955352 -0.078466021 66 7
-7.2935123 3.3932757 2.1554451 75 15
-1.2669975 0.5924266 -0.37476999 10 0
-1.4630712 0.68504107 -0.37296885 7 1
-5.548955 2.5993197 0.32113346 42 9
-1.7154964 0.80396265 -0.36826137 6 2
-5.5381289 2.596606 0.53513628 27 10
-2.0421863 0.95836926 -0.35729638 6 3
-5.5272717 2.5950465 0.7497403 52 11
-2.5963111 1.2195176 -0.35220242 7 4
-5.5797687 2.6220725 0.97646403 29 12
-3.5192919 1.655303 -0.34025604 5 5
-6.9599576 3.2751076 1.4951794 37 13
-4.0820713 1.9217461 -0.23645388 76 6
-7.3075647 3.4417953 1.8648442 13 14
-4.0697637 1.9185557 -0.078535825 74 7
-4.6826925 2.2085009 1.3872701 13 15
-1.2743521 0.60401714 -0.3778758 8 0
-1.4489011 0.68767905 -0.37026942 6 1
-5.5406823 2.630908 0.32144746 36 9
-1.7077169 0.81124854 -0.36749816 6 2
-5.546051 2.6358316 0.53722799 25 10
-2.0478432 0.97414005 -0.35917357 6 3
-5.5333252 2.6333358 0.75242138 49 11
-2.554044 1.2160277 -0.34732765 6 4
-6.9605751 3.3155513 1.2211275 18 12
-3.517771 1.6771359 -0.34095326 5 5
-6.960434 3.3199563 1.4989955 37 13
-4.0755582 1.9448143 -0.23666322 100 6
-7.2999959 3.4850452 1.8675436 67 14
-4.0740972 1.9467365 -0.078815073 100 7
-7.3081245 3.4936273 2.1704566 100 15
-1.2642069 0.60733473 -0.37580526 8 0
-1.452305 0.69863504 -0.37206903 6 1
-5.5430274 2.6676788 0.32238951 40 9
-1.6892946 0.81336564 -0.36444521 6 2
-5.551919 2.674345 0.53914541 23 10
-2.039156 0.98313326 -0.35854784 6 3
-5.517673 2.6614091 0.75217766 30 11
-2.5619442 1.2362862 -0.34927759 7 4
-6.9573517 3.3588214 1.2236305 33 12
-3.5125289 1.6972661 -0.34130189 5 5
-6.9783068 3.3734443 1.5066279 39 13
-4.0545316 1.9609095 -0.23603518 37 6
-7.2220058 3.4943633 1.852247 45 14
-4.0584488 1.9654267 -0.078710355 52 7
-7.2323608 3.5040479 2.1533747 24 15
-1.2540618 0.61056334 -0.37373474 8 0
-6.3767014 3.1059926 0.12380737 49 8
-1.4556339 0.70964539 -0.37386864 6 1
-5.5612965 2.7124248 0.32427362 31 9
-1.6850128 0.82219946 -0.36444521 6 2
-5.5700684 2.7191103 0.542283 10 10
-2.0339804 0.99379659 -0.35854784 6 3
-5.5767832 2.7260048 0.76217091 40 11
-2.5572193 1.2505554 -0.34952128 6 4
-6.9645114 3.4073567 1.2280107 36 12
-3.4928575 1.7103776 -0.34025604 6 5
-6.9799418 3.4194365 1.5108256 39 13
-4.0119257 1.9662907 -0.23415108 31 6
-7.1336212 3.4978132 1.8342509 47 14
-4.0104036 1.9681493 -0.077977359 34 7
-4.6734366 2.2945523 1.3950348 13 15
-1.2508477 0.6171211 -0.37373474 8 0
-6.3711109 3.1446483 0.12401681 52 8
-1.4518982 0.71725726 -0.37386864 6 1
-5.5667143 2.7512403 0.32542503 8 9
-1.6912438 0.83623219 -0.36673489 6 2
-4.6217589 2.2862222 0.45111811 7 10
-2.0075054 0.9939155 -0.3547934 6 3
-5.5766649 2.7622156 0.76412088 45 11
-2.5630872 1.270098 -0.35122749 5 4
-6.9784312 3.4595702 1.2336423 36 12
-3.4838543 1.7286422 -0.34025604 6 5
-6.9707341 3.4603021 1.5127338 39 13
-3.9640112 1.9686131 -0.23195298 31 6
-7.0558715 3.505635 1.8189542 47 14
-3.9534893 1.9659712 -0.077069834 32 7
-7.0413322 3.5030091 2.1073048 18 15
-1.2579671 0.62884498 -0.37684056 8 0
-6.3724432 3.186908 0.12436585 52 8
-1.437667 0.71961617 -0.37116924 6 1
-4.5860829 2.2965376 0.26879749 6 9
-1.6833316 0.84331709 -0.36597168 6 2
-4.5776639 2.294322 0.44798052 15 10
-2.0199308 1.0132703 -0.35792211 6 3
-5.5461574 2.7833645 0.76192719 30 11
-2.5564022 1.2835 -0.35122749 6 4
-6.9919953 3.5120208 1.239274 48 12
-3.4889958 1.7540197 -0.34165049 5 5
-6.9683065 3.5046918 1.5161684 49 13
-3.9072611 1.9660016 -0.22923151 30 6
-6.9764972 3.5118654 1.8032078 48 14
-3.9288552 1.9794453 -0.076790586 35 7
-4.6922793 2.365104 1.4079756 24 15
-1.2546574 0.63542295 -0.37684056 8 0
-4.6004128 2.3308945 0.090019517 2 8
-1.4304034 0.72537094 -0.37026942 6 1
-4.5312476 2.2988327 0.26628536 13 9
-1.6893971 0.8574506 -0.36826137 6 2
-4.5407171 2.3056302 0.44554016 16 10
-2.0075536 1.0202532 -0.35667065 6 3
-6.8940349 3.5051103 0.949606 48 11
-2.5354917 1.2896682 -0.34927759 6 4
-6.8995676 3.5109565 1.2261335 49 12
