# .PCD v0.7 - Point Cloud Data file format
VERSION 0.7
FIELDS x y z intensity ring
SIZE 4 4 4 4 2
TYPE F F F F U
COUNT 1 1 1 1 1
WIDTH 1264
HEIGHT 1
VIEWPOINT 0 0 0 1 0 0 0
POINTS 1264
DATA ascii
1.9766098 -3.9801099 0.23289503 42 9
0.90435761 -1.8218163 -0.39535624 6 2
2.2165945 -4.4672575 0.43630162 15 10
1.1081507 -2.2352927 -0.39515349 6 3
1.4335333 -2.8941731 -0.39656287 7 4
1.6961162 -3.4288166 -0.33467805 22 5
1.685788 -3.4109323 -0.19940001 5 6
1.6904812 -3.4249425 -0.06666819 94 7
2.7300355 -5.5335283 1.6533362 66 15
0.65132922 -1.326597 -0.39599317 9 0
0.76184893 -1.5537541 -0.3995131 7 1
1.9566218 -3.992198 0.2329997 43 9
0.89480621 -1.8265265 -0.39535624 6 2
2.1861639 -4.4644876 0.43490714 26 10
1.0938271 -2.2357409 -0.39421493 5 3
1.4166166 -2.8980722 -0.3960754 7 4
1.6833839 -3.4483931 -0.33572391 1 5
7.871593 -16.132011 3.4891336 3 13
1.6889182 -3.4627955 -0.20191215 1 6
7.645556 -15.682658 4.0279737 0 14
2.7001781 -5.5460095 1.6528184 61 15
0.64437425 -1.3299892 -0.39599317 7 0
1.6664733 -3.4411321 0.066738002 1 8
0.75567317 -1.5610983 -0.40041289 7 1
1.9339533 -3.9987924 0.23279037 43 9
0.88437599 -1.8294191 -0.39497465 7 2
2.1549561 -4.4597273 0.43333834 35 10
1.0790604 -2.2341335 -0.39296341 6 3
7.3935623 -15.321605 2.0888407 1 11
1.4031477 -2.9090259 -0.39656287 7 4
7.6729007 -15.914669 2.7983 4 12
1.6589892 -3.4425104 -0.33432943 1 5
7.1916347 -14.949786 3.8300166 0 14
1.7001851 -3.535882 -0.068483248 1 7
2.6712363 -5.5578642 1.6523008 46 15
0.63906813 -1.3368306 -0.39702842 7 0
0.73993003 -1.5492074 -0.39636377 7 1
1.9093863 -3.9995179 0.23226699 46 9
0.87848711 -1.8409594 -0.39650109 7 2
2.1272886 -4.4619575 0.4324668 46 10
1.0656484 -2.2361865 -0.39233768 6 3
1.3952326 -2.9304292 -0.39851278 7 4
7.3433871 -15.437314 2.7075679 1 12
1.618697 -3.4043663 -0.32979733 1 5
7.234818 -15.222775 3.2761905 1 13
1.6446013 -3.4619625 -0.20086543 1 6
7.0155683 -14.774751 3.7760284 0 14
1.6387926 -3.4544003 -0.066738002 1 7
2.6445825 -5.5770116 1.6538538 18 15
0.63229382 -1.3400482 -0.39702842 7 0
0.73346967 -1.556586 -0.39726356 7 1
1.8824614 -3.9968121 0.2315343 48 9
0.86632711 -1.8402051 -0.39535624 7 2
2.1046782 -4.4726672 0.4324668 50 10
1.0606488 -2.2560368 -0.39484066 5 3
5.0664673 -10.781443 1.462676 8 11
1.3748063 -2.9269137 -0.39705035 7 4
7.1946402 -15.324082 2.6812871 9 12
1.6245413 -3.4633017 -0.33467805 1 5
7.2683616 -15.502197 3.3280907 1 13
1.6688296 -3.5609515 -0.20609902 1 6
7.1447749 -15.25246 3.888504 3 14
2.6153452 -5.5907817 1.6538538 5 15
0.62200779 -1.3363348 -0.39495787 7 0
0.72859502 -1.5674738 -0.39906317 7 1
1.859825 -4.0029912 0.23132494 48 9
0.85337257 -1.8375936 -0.39382979 7 2
2.0778744 -4.4763975 0.43176955 50 10
1.0488218 -2.2615592 -0.39484066 5 3
1.357793 -2.9304698 -0.39656287 7 4
7.2338448 -15.619661 2.7263403 1 12
1.3796505 -2.9817357 -0.28743961 13 5
7.1903868 -15.547171 3.329617 3 13
1.3878458 -3.0021966 -0.17333671 30 6
7.0827994 -15.328579 3.8984015 3 14
1.3779066 -2.9847991 -0.057383511 49 7
2.5803707 -5.5921202 1.6502303 1 15
0.6166144 -1.3430846 -0.39599317 9 0
0.72037792 -1.5712671 -0.39906317 7 1
1.833848 -4.00178 0.2306969 48 9
0.84128642 -1.8366817 -0.39268494 7 2
2.0452838 -4.4672885 0.4298521 50 10
1.0336791 -2.2598343 -0.39358914 5 3
1.3457311 -2.9447608 -0.39753783 7 4
7.1650939 -15.68607 2.7313461 1 12
6.9951687 -15.349496 3.8943524 2 14
0.60638624 -1.3392553 -0.3939226 7 0
1.3604141 -3.0059869 0.057592943 1 8
0.71053505 -1.5714663 -0.39816338 7 1
1.8062893 -3.9967673 0.22985955 51 9
0.83731574 -1.8535857 -0.39535624 6 2
2.0194061 -4.4724884 0.42932916 56 10
1.0185834 -2.2580132 -0.39233768 5 3
7.2847714 -16.156528 2.1760993 1 11
1.3319253 -2.9553864 -0.39802533 7 4
7.35709 -16.332136 2.837096 1 12
7.0312138 -15.630567 3.3315253 5 13
6.8260341 -15.188609 3.8444133 1 14
0.60251617 -1.349468 -0.39599317 7 0
1.339767 -3.0021119 0.057383511 1 8
0.70070988 -1.5716054 -0.39726356 6 1
1.7837118 -4.002521 0.22965018 54 9
0.82759887 -1.8579445 -0.39535624 6 2
1.9902878 -4.4702601 0.42810899 52 10
1.0067468 -2.2633154 -0.39233768 5 3
7.1968513 -16.187197 2.1751244 3 11
1.3180449 -2.9659481 -0.39851278 7 4
7.0421371 -15.854117 2.7476153 1 12
6.9134545 -15.58641 3.3143525 1 13
6.7211485 -15.167131 3.8300166 0 14
0.60166878 -1.3667493 -0.40013427 7 0
1.3642981 -3.1006031 0.059128754 1 8
0.69404 -1.5788207 -0.39816338 6 1
1.7563028 -3.9971776 0.22881283 57 9
0.81470168 -1.8550624 -0.39382979 6 2
1.9692572 -4.4860926 0.42863193 56 10
0.99646866 -2.2721739 -0.39296341 5 3
7.1773462 -16.373741 2.1951108 1 11
1.2977176 -2.961899 -0.39705035 7 4
6.9495192 -15.86906 2.743861 6 12
6.8789482 -15.730321 3.3372498 1 13
7.0379705 -16.109278 4.058567 2 14
0.58988971 -1.3592478 -0.39702842 7 0
1.2923405 -2.9792864 0.056685418 1 8
0.68576378 -1.582433 -0.39816338 6 1
1.7313802 -3.9971552 0.22828946 55 9
0.8049776 -1.8593026 -0.39382979 6 2
1.9417849 -4.4871998 0.42776039 52 10
0.98926181 -2.2882395 -0.39484066 5 3
7.011199 -16.225227 2.1702495 1 11
1.2821912 -2.9686532 -0.39705035 7 4
6.9007821 -15.985027 2.757627 1 12
6.7747278 -15.715641 3.3265641 3 13
6.934257 -16.10116 4.0473194 4 14
0.58276469 -1.3623178 -0.39702842 7 0
1.2767233 -2.9860122 0.056685418 1 8
0.67746896 -1.5860019 -0.39816338 7 1
1.7112122 -4.0080028 0.22839414 57 9
0.7983135 -1.8707145 -0.39535624 6 2
1.9104462 -4.4789786 0.42601725 52 10
0.97881544 -2.2970223 -0.39546639 5 3
1.2666301 -2.9753261 -0.39705035 6 4
6.8401957 -16.075472 2.7670133 1 12
6.7061691 -15.783422 3.3334334 1 13
6.7699041 -15.948897 4.0000796 0 14
0.57412267 -1.3617903 -0.39599317 9 0
1.2564119 -2.9815996 0.056475986 1 8
0.67397147 -1.6001862 -0.40086278 7 1
0.7885077 -1.8748688 -0.39535624 6 2
1.8815639 -4.4760633 0.42479706 58 10
0.95952517 -2.2837355 -0.39233768 5 3
1.2541059 -2.9892395 -0.39802533 7 4
6.720027 -16.025446 2.7523084 3 12
6.6732302 -15.929432 3.3570938 3 13
6.6020775 -15.782773 3.9496906 0 14
0.56722277 -1.3646786 -0.39599317 9 0
1.2336329 -2.9694538 0.056126937 1 8
0.6568957 -1.58198 -0.39546397 7 1
0.77524835 -1.8697681 -0.39344814 5 2
1.8581215 -4.4836888 0.42462277 52 10
0.9449299 -2.2812626 -0.39108619 6 3
1.2374424 -2.9918799 -0.39753783 7 4
2.317173 -5.6190977 1.4032447 0 14
2.2796934 -5.5336919 1.6036428 6 15
0.56323797 -1.3746828 -0.39806372 7 0
0.65155494 -1.5926124 -0.39726356 7 1
0.76651734 -1.8754855 -0.39382979 6 2
1.8346508 -4.4911919 0.42444846 54 10
0.9381972 -2.2989817 -0.3932763 6 3
2.2536829 -5.5252366 0.73267853 60 11
1.2222831 -2.9981048 -0.39753783 7 4
2.2534053 -5.5300765 0.94580293 59 12
2.2566757 -5.5464106 1.1639349 69 13
2.2498114 -5.5350728 1.3793999 57 14
2.2514148 -5.5473428 1.6041605 66 15
0.55458641 -1.37403 -0.39702842 7 0
1.1820428 -2.9300742 0.055149604 1 8
0.64757788 -1.6068469 -0.39996299 7 1
0.75228739 -1.868546 -0.39154008 6 2
1.8081347 -4.4933434 0.42375124 54 10
0.92541003 -2.3020296 -0.39296341 5 3
2.2180614 -5.5203838 0.7304849 73 11
1.1880745 -2.958411 -0.39144436 9 4
2.2155895 -5.5198007 0.94204849 70 12
2.2100761 -5.5144143 1.1547761 65 13
2.2113824 -5.5232582 1.3735511 55 14
1.1614618 -2.9038615 -0.05459113 1 7
2.2173183 -5.5464978 1.6005371 81 15
0.54310238 -1.3661438 -0.3939226 7 0
1.1770221 -2.9622405 0.055638272 1 8
0.6394366 -1.610104 -0.39996299 7 1
1.4450842 -3.6424353 0.20536631 1 9
0.74538833 -1.8797596 -0.39306656 6 2
1.7779763 -4.4860792 0.42218241 52 10
0.91447407 -2.3085208 -0.3932763 6 3
2.191318 -5.5374594 0.73121613 87 11
1.1630764 -2.940594 -0.38827574 19 4
2.1859312 -5.5294886 0.94173563 74 12
2.1840553 -5.533215 1.1563026 69 13
2.1795738 -5.5275102 1.3717515 62 14
1.1834102 -3.0027242 -0.056336369 1 7
2.1771798 -5.5270934 1.5917372 88 15
0.53735048 -1.3725666 -0.39495787 7 0
0.62815815 -1.6061704 -0.39816338 7 1
1.4222672 -3.6385415 0.20473827 26 9
0.7372933 -1.8871654 -0.39382979 6 2
1.7515655 -4.4879026 0.42148519 52 10
0.89734918 -2.3003948 -0.39108619 6 3
2.1582146 -5.535533 0.72950995 54 11
1.1726837 -3.0093303 -0.39656287 7 4
2.1497836 -5.52245 0.93860692 45 12
1.1515722 -2.959734 -0.27785251 1 5
2.1567326 -5.5460281 1.1566842 15 13
1.1401801 -2.9380383 -0.055009987 1 7
0.53178662 -1.3788737 -0.39599317 9 0
0.61553818 -1.598526 -0.39546397 7 1
1.3996098 -3.6366184 0.20421492 23 9
0.73304075 -1.905659 -0.39688274 6 2
1.7288275 -4.4967108 0.42148519 52 10
0.8824591 -2.2976856 -0.38983473 6 3
1.1611772 -3.0265493 -0.39802533 7 4
2.1580427 -5.6424885 1.3946966 0 14
2.1570861 -5.64885 1.6202073 1 15
0.53004521 -1.3960878 -0.40013427 7 0
0.60854131 -1.6053714 -0.39636377 7 1
1.375596 -3.6308231 0.20348223 20 9
0.72027159 -1.9021268 -0.39535624 6 2
1.7017331 -4.4963837 0.42061362 54 10
0.87600487 -2.3170567 -0.39233768 5 3
1.1481199 -3.0400157 -0.39900026 7 4
2.131216 -5.6610055 1.3964962 0 14
2.1274793 -5.6600671 1.6202073 1 15
0.51596564 -1.3807476 -0.39495787 9 0
1.0802665 -2.8923805 0.05389303 1 8
0.6014896 -1.6121874 -0.39726356 7 1
1.3593578 -3.6454611 0.2039009 17 9
0.70893121 -1.9021927 -0.39459303 6 2
1.6739941 -4.49403 0.41956773 54 10
0.86523873 -2.325314 -0.39296341 5 3
1.1266537 -3.0311 -0.39705035 7 4
4.3146029 -11.614021 1.9623141 1 12
2.092067 -5.6465044 1.3901975 0 14
1.0855615 -2.9330807 -0.05459113 1 7
2.0978146 -5.6711287 1.6202073 1 15
0.50872916 -1.3834302 -0.39495787 7 0
0.59706992 -1.6262907 -0.39996299 7 1
1.3368111 -3.6431539 0.20337754 12 9
0.69625771 -1.8985059 -0.39306656 6 2
1.6456411 -4.4896383 0.41834757 49 10
0.85169321 -2.326103 -0.39233768 5 3
1.1107677 -3.0369575 -0.39705035 7 4
4.2672963 -11.673559 1.9685715 1 12
1.0893359 -2.9832015 -0.27785251 1 5
6.0606017 -16.624279 4.0851111 1 14
2.0575202 -5.6529899 1.611925 1 15
0.50016403 -1.3824416 -0.3939226 7 0
1.0594391 -2.9298618 0.054381698 1 8
0.58485669 -1.6182956 -0.39726356 7 1
1.3190734 -3.6538606 0.20358689 9 9
0.68764049 -1.9058188 -0.39382979 6 2
1.6167036 -4.4831996 0.41695309 47 10
0.83589005 -2.3192337 -0.39046046 6 3
1.094851 -3.042732 -0.39705035 7 4
1.0270487 -2.85743 -0.26565069 1 5
2.0394025 -5.6864457 1.3946966 0 14
2.0223658 -5.6451449 1.6067487 1 15
0.49550974 -1.3923217 -0.39599317 7 0
1.0212988 -2.8713105 0.053194933 1 8
0.57637525 -1.6213356 -0.39726356 7 1
0.68061316 -1.9166751 -0.39535624 6 2
1.4906347 -4.2024279 0.39010909 8 10
0.8263756 -2.3310261 -0.39171195 5 3
1.0820872 -3.0557196 -0.39802533 7 4
1.0253546 -2.9003375 -0.26913694 1 5
5.8112841 -16.447042 3.390676 1 13
1.9833541 -5.619514 1.3758006 0 14
2.0094728 -5.7030296 1.6202073 1 15
0.49101028 -1.402105 -0.39806372 7 0
0.56659198 -1.6206522 -0.39636377 7 1
0.66927356 -1.9165055 -0.39459303 6 2
1.5139899 -4.3378344 0.40196225 3 10
0.81285828 -2.3315902 -0.39108619 6 3
1.062156 -3.0500951 -0.39656287 7 4
5.6838508 -16.358557 3.3662524 1 13
1.9526254 -5.6261401 1.3749009 0 14
1.9530212 -5.636807 1.5984664 1 15
0.4836621 -1.4046568 -0.39806372 7 0
0.99362981 -2.8873475 0.053299651 5 8
0.56189936 -1.634654 -0.39906317 6 1
1.2446392 -3.6229086 0.20076075 1 9
0.65349185 -1.9032719 -0.39115849 5 2
1.7292372 -5.0392051 0.46610889 2 10
0.80448198 -2.3470263 -0.39296341 5 3
1.0461707 -3.0556149 -0.39656287 7 4
1.9168476 -5.6178432 1.3704019 0 14
1.9309554 -5.6688995 1.6046782 1 15
0.47134581 -1.3925309 -0.3939226 7 0
0.97016805 -2.8678854 0.052845888 1 8
0.54958963 -1.6264967 -0.39636377 6 1
1.2345992 -3.6558673 0.20222615 4 9
0.64351737 -1.9066674 -0.39115849 6 2
1.7212957 -5.1029391 0.47116393 8 10
0.79344368 -2.3549504 -0.39358914 5 3
1.0314234 -3.0648136 -0.39705035 7 4
3.6487031 -10.848163 1.8127627 1 12
1.886167 -5.6241074 1.3695021 0 14
1.8951135 -5.6606131 1.5995017 1 15
0.4664872 -1.4023122 -0.39599317 7 0
0.95640016 -2.8767209 0.052915696 1 8
0.54475087 -1.6404485 -0.39906317 6 1
0.63846976 -1.9249179 -0.39421138 5 2
1.705211 -5.144031 0.4741272 56 10
0.77737689 -2.3478212 -0.39171195 5 3
1.0153624 -3.0701718 -0.39705035 7 4
3.9799256 -12.041231 2.0086186 1 12
1.8518137 -5.6191001 1.3659029 0 14
1.8545816 -5.6374264 1.5901842 1 15
0.46033859 -1.4084079 -0.39702842 7 0
0.93759936 -2.8702843 0.052706268 1 8
0.53373617 -1.6358678 -0.39726356 6 1
1.2309221 -3.7749312 0.20808777 1 9
0.62777412 -1.9263682 -0.39382979 6 2
1.2389461 -3.804045 0.35001746 3 10
0.76629543 -2.3556161 -0.39233768 5 3
0.99804616 -3.0716705 -0.39656287 7 4
1.8127635 -5.5990553 1.3587044 0 14
1.7192917 -5.3198538 1.4980446 1 15
0.45532027 -1.4181563 -0.39909899 7 0
0.9262234 -2.8865783 0.052915696 1 8
0.52635318 -1.6423515 -0.39816338 7 1
0.61887604 -1.9333682 -0.39459303 6 2
1.2068696 -3.7725267 0.34653121 79 10
0.75575459 -2.3652413 -0.3932763 6 3
1.6425097 -5.1435628 0.66296923 36 11
0.97832829 -3.0655072 -0.39510044 8 4
1.6416879 -5.1471882 0.85569662 34 12
1.6426331 -5.1594815 1.0525025 63 13
1.636378 -5.1460495 1.2466787 52 14
1.6388124 -5.163064 1.4514573 62 15
0.44440308 -1.4094664 -0.39599317 7 0
0.90989435 -2.8875742 0.052845888 1 8
0.51803362 -1.6449946 -0.39816338 7 1
1.182934 -3.7609413 0.20662238 78 9
0.60521227 -1.9253446 -0.39230329 5 2
1.1876975 -3.780695 0.34670553 79 10
0.74436498 -2.3709207 -0.39358914 5 3
1.6137742 -5.14641 0.66223812 63 11
0.96345109 -3.0743761 -0.39558792 7 4
1.6111723 -5.144403 0.85381943 48 12
1.611495 -5.1548953 1.0498312 67 13
1.6053458 -5.1415257 1.2435294 51 14
1.6115083 -5.167604 1.4504219 72 15
0.43587464 -1.408083 -0.39495787 7 0
0.88767093 -2.8693743 0.052427031 1 8
0.51171583 -1.6551317 -0.39996299 6 1
1.1621144 -3.7611556 0.20630836 85 9
0.5954594 -1.9283832 -0.39230329 6 2
1.1608396 -3.7640154 0.34461379 78 10
0.73194093 -2.3747854 -0.39358914 5 3
1.5888736 -5.1583061 0.66272557 69 11
0.94904637 -3.0830078 -0.3960754 7 4
1.5789901 -5.1357751 0.85100359 46 12
1.5825015 -5.1536016 1.0479231 57 13
1.5775872 -5.1439962 1.2421798 49 14
1.5742509 -5.1427212 1.4411045 69 15
0.42761824 -1.4065745 -0.3939226 7 0
0.86383557 -2.8432171 0.05186855 2 8
0.5030427 -1.6577883 -0.39996299 6 1
1.1047312 -3.6429539 0.19950469 44 9
0.58763194 -1.9389904 -0.39382979 6 2
1.1400406 -3.764122 0.34409088 87 10
0.72064036 -2.3823671 -0.39421493 5 3
1.5595453 -5.1589541 0.66175061 64 11
0.93289107 -3.0879347 -0.3960754 7 4
1.5535462 -5.1455927 0.85131645 48 12
1.549265 -5.1411395 1.0437253 59 13
1.551755 -5.1559181 1.2430795 49 14
1.5461905 -5.147193 1.4400692 64 15
0.42356092 -1.4199016 -0.39702842 7 0
0.84208113 -2.8247049 0.051449694 1 8
0.48990697 -1.6454577 -0.39636377 6 1
1.1118426 -3.7367468 0.2043196 78 9
0.57635242 -1.9382769 -0.39306656 6 2
1.1265594 -3.791048 0.3460083 85 10
0.70478427 -2.3747454 -0.39233768 5 3
1.5251741 -5.1423078 0.65858197 61 11
0.91670942 -3.092777 -0.3960754 6 4
1.5265825 -5.1536565 0.85131645 48 12
1.5206552 -5.1435332 1.0425804 57 13
1.5225306 -5.156496 1.2412798 49 14
1.5175802 -5.1496587 1.4385163 62 15
0.41720575 -1.4258082 -0.39806372 7 0
0.83850467 -2.8674614 0.052147791 1 8
0.47800687 -1.6367767 -0.39366436 7 1
1.0866667 -3.7233443 0.20327288 74 9
0.56949383 -1.9525763 -0.39535624 6 2
0.69234073 -2.3784029 -0.39233768 5 3
1.4987826 -5.1521292 0.6588257 61 11
0.83400434 -2.8687935 -0.36682677 8 4
1.4979243 -5.1558881 0.85037786 50 12
1.4937027 -5.1514249 1.0425804 57 13
1.4895478 -5.1438074 1.236331 50 14
1.4895238 -5.1538224 1.437481 62 15
0.40866882 -1.4242592 -0.39702842 7 0
0.47264925 -1.6504977 -0.39636377 6 1
1.0429777 -3.6444955 0.19866732 17 9
0.55602348 -1.9442061 -0.39306656 6 2
1.4722426 -5.1512799 0.46872357 58 10
0.68421525 -2.3971918 -0.39484066 5 3
1.4696075 -5.1522703 0.65785074 61 11
0.81461889 -2.8578484 -0.36487687 21 4
1.4654958 -5.1446624 0.84724921 50 12
0.80139202 -2.81704 -0.25623786 12 5
1.4661732 -5.1572866 1.0421988 63 13
0.82256031 -2.8952909 -0.15774059 1 6
1.4620621 -5.1496615 1.2358811 52 14
0.79531711 -2.8049843 -0.050891217 62 7
1.4598845 -5.1522579 1.4348928 67 15
0.39597499 -1.4077827 -0.39185205 7 0
0.79003334 -2.8106318 0.050961025 13 8
0.46610752 -1.6604548 -0.39816338 6 1
1.0913118 -3.8902848 0.2117513 9 9
0.54265654 -1.9357485 -0.39077684 6 2
1.4409506 -5.1435704 0.46732911 88 10
0.66739666 -2.3855226 -0.39233768 5 3
1.4447486 -5.1675415 0.6588257 70 11
0.80551988 -2.8831053 -0.36755794 19 4
1.4374758 -5.1484599 0.84662342 54 12
0.78342032 -2.8096824 -0.25519201 20 5
1.4359875 -5.1535454 1.0399091 59 13
0.7945317 -2.8533804 -0.15522847 1 6
1.435079 -5.1572456 1.2358811 53 14
1.4292694 -5.1468005 1.4312694 62 15
0.38962525 -1.4135615 -0.39288735 7 0
0.45844081 -1.6666304 -0.39906317 6 1
0.99205077 -3.6089976 0.19615518 4 9
0.53615367 -1.951815 -0.39344814 6 2
1.4161087 -5.15873 0.46802634 28 10
0.65489697 -2.3889844 -0.39233768 5 3
1.4092798 -5.1444025 0.65492588 73 11
0.85173839 -3.1112969 -0.3960754 7 4
1.4084142 -5.1482944 0.84537196 50 12
1.4074333 -5.1553116 1.0387642 61 13
1.4070307 -5.1609287 1.2349813 52 14
1.3987511 -5.1411657 1.4276459 64 15
0.38725433 -1.4342328 -0.39806372 7 0
0.78868729 -2.9230061 0.052845888 1 8
0.4439114 -1.646351 -0.39366436 7 1
0.52439654 -1.948908 -0.39230329 6 2
1.0905691 -4.0558963 0.3674486 4 10
0.64279675 -2.3922684 -0.39233768 6 3
1.37962 -5.1380496 0.6532197 72 11
0.83440763 -3.1118789 -0.39558792 7 4
1.3814386 -5.1555982 0.84537196 56 12
1.3782769 -5.1509905 1.0364745 64 13
1.3774759 -5.1588116 1.2327318 53 14
1.3737068 -5.1519127 1.4286813 64 15
0.37900171 -1.4324392 -0.39702842 7 0
0.77388322 -2.9269605 0.052845888 1 8
0.4385595 -1.6598812 -0.39636377 7 1
0.94056892 -3.5649486 0.19322437 4 9
0.51552653 -1.9553342 -0.39306656 6 2
1.0700262 -4.0613647 0.3674486 13 10
0.63068032 -2.3954911 -0.39233768 6 3
1.3535968 -5.1449666 0.6532197 75 11
0.81562018 -3.104543 -0.39412549 8 4
1.3543226 -5.1587029 0.84474617 60 12
1.3516898 -5.1560016 1.0360929 66 13
1.3459218 -5.144979 1.2277828 52 14
1.3490783 -5.1644068 1.4302342 62 15
0.37271598 -1.4380795 -0.39806372 7 0
0.78111839 -3.0160165 0.054381698 1 8
0.42986235 -1.6621547 -0.39636377 7 1
0.50562328 -1.9579184 -0.39306656 7 2
1.0723568 -4.1554708 0.37546691 1 10
0.61467868 -2.3853705 -0.39014763 6 3
1.3251542 -5.1462164 0.65248853 46 11
0.80187482 -3.1163211 -0.39510044 7 4
1.3247511 -5.1521001 0.84255612 26 12
1.3339448 -5.1991401 1.0433437 24 13
1.3363078 -5.21591 1.2430795 25 14
0.77513969 -3.0299447 -0.05459113 1 7
1.3382876 -5.2350364 1.4478338 37 15
0.36138219 -1.4250306 -0.3939226 7 0
0.78299952 -3.0898483 0.055638272 1 8
0.42306578 -1.6719395 -0.39816338 6 1
0.92926949 -3.6751337 0.19866732 1 9
0.49440271 -1.9567319 -0.39230329 6 2
1.0427803 -4.1301208 0.37267792 1 10
0.60507786 -2.4000487 -0.39202482 6 3
1.3297116 -5.2782059 0.6683315 27 11
0.78651637 -3.1243269 -0.39558792 7 4
1.3281169 -5.2796545 0.86226684 18 12
1.3320354 -5.3069744 1.0635694 24 13
1.333614 -5.3211293 1.2664744 25 14
1.3371031 -5.3469234 1.4768215 31 15
0.35298562 -1.4231532 -0.39288735 7 0
0.76681036 -3.0939057 0.055638272 1 8
0.41336939 -1.6703483 -0.39726356 7 1
0.87884879 -3.5539231 0.19186363 8 9
0.48367977 -1.9573879 -0.3919217 5 2
1.0249622 -4.1509986 0.37407246 1 10
0.59155691 -2.3993483 -0.39139909 5 3
1.3357722 -5.4219456 0.685637 21 11
0.77109569 -3.1322577 -0.3960754 7 4
1.3311255 -5.4112182 0.88260335 17 12
1.3337119 -5.4339962 1.0876113 20 13
1.3405237 -5.4699941 1.300217 20 14
0.73671418 -3.0107021 -0.054102462 4 7
1.3412081 -5.4852109 1.5130562 38 15
0.3473503 -1.4324917 -0.39495787 7 0
0.74118268 -3.0590088 0.054940179 1 8
0.40095195 -1.6573372 -0.39366436 7 1
0.86351395 -3.5720654 0.19259633 8 9
0.4748072 -1.9656188 -0.39306656 6 2
0.99853861 -4.1369405 0.37232932 1 10
0.57620919 -2.3908904 -0.38952184 7 3
1.2850561 -5.3362293 0.6739375 10 11
0.75282687 -3.1285319 -0.39510044 7 4
1.3369489 -5.5602412 0.9057557 68 12
1.3299726 -5.5439954 1.1082187 69 13
1.3300209 -5.5527434 1.3182131 53 14
1.3263887 -5.550406 1.529103 88 15
0.34073582 -1.4380503 -0.39599317 7 0
0.39226884 -1.6594137 -0.39366436 7 1
0.89668041 -3.7961836 0.20442426 42 9
0.46495944 -1.9699887 -0.39344814 6 2
0.96771777 -4.1033287 0.36884311 1 10
0.56685185 -2.4073343 -0.39171195 6 3
1.2125431 -5.1535163 0.65005112 10 11
0.73371011 -3.1208365 -0.39363801 7 4
1.3064618 -5.5613961 0.90481704 74 12
1.3013741 -5.5527954 1.1086004 76 13
1.2987086 -5.5501442 1.3159637 56 14
1.2959911 -5.551631 1.5275501 68 15
0.33233038 -1.4360504 -0.39495787 7 0
0.71811914 -3.1055684 0.055638272 1 8
0.38708171 -1.6766351 -0.39726356 6 1
0.87634283 -3.7988806 0.2043196 57 9
0.45287454 -1.9647437 -0.3919217 5 2
0.93638158 -4.0656252 0.36500823 4 10
0.55556762 -2.4160447 -0.39265057 5 3
1.178875 -5.1307745 0.64639509 31 11
0.71824765 -3.128505 -0.39412549 8 4
0.72758007 -3.189569 -0.057104275 1 7
0.32310405 -1.4302334 -0.39288735 6 0
0.37829772 -1.6786389 -0.39726356 6 1
0.85643983 -3.8034172 0.2043196 59 9
0.44214994 -1.9651726 -0.39154008 6 2
0.901097 -4.0082679 0.35943025 3 10
0.54290956 -2.4189205 -0.39265057 5 3
1.151994 -5.1368771 0.64639509 40 11
0.70272541 -3.1360967 -0.39461297 7 4
2.6723931 -11.936027 1.9372847 1 12
2.7186799 -12.17265 2.4244192 1 13
2.7232013 -12.212939 2.8888216 6 14
0.31477925 -1.4281324 -0.39185205 7 0
0.36866626 -1.6767902 -0.39636377 6 1
0.83608478 -3.8058984 0.20421492 57 9
0.43227541 -1.9693785 -0.3919217 6 2
0.87412244 -3.9856853 0.35698992 8 10
0.52770162 -2.410152 -0.39077336 6 3
1.1208397 -5.1234455 0.64395767 43 11
0.68799037 -3.1474903 -0.39558792 8 4
2.6393635 -12.084947 1.9591854 1 12
2.6712043 -12.26153 2.4393022 7 13
3.3201919 -15.266172 3.6068652 1 14
0.31054491 -1.4448707 -0.39599317 7 0
0.35906455 -1.6748867 -0.39546397 6 1
0.81572777 -3.8082709 0.20411025 56 9
0.42319044 -1.9773743 -0.39306656 6 2
0.85115826 -3.9804657 0.35611835 6 10
0.51548749 -2.4148135 -0.39108619 7 3
1.0886149 -5.1040058 0.64078909 46 11
0.66901821 -3.1394007 -0.39412549 7 4
2.6180127 -12.295671 1.9910982 1 12
2.5478299 -11.996887 2.3839676 3 13
2.5725276 -12.134028 2.863627 1 14
0.30455953 -1.4540403 -0.39806372 7 0
0.68569237 -3.2765098 0.058430657 1 8
0.34789902 -1.6652982 -0.39276454 7 1
0.79169559 -3.7929387 0.20306353 56 9
0.41363269 -1.9834069 -0.39382979 6 2
0.82827318 -3.9751151 0.35524681 11 10
0.50525004 -2.4290833 -0.39296341 6 3
1.0602604 -5.1018615 0.63981414 55 11
0.65015012 -3.1311986 -0.39266306 8 4
2.5387502 -12.237646 1.9795219 9 12
2.5319183 -12.236922 2.4289987 1 13
2.459686 -11.908775 2.807389 6 14
0.29616967 -1.4518292 -0.39702842 7 0
0.6765148 -3.3192434 0.059128754 1 8
0.34189436 -1.6804644 -0.39591387 5 1
0.40167913 -1.9778492 -0.39230329 6 2
0.80190146 -3.9520614 0.35280645 26 10
0.49213263 -2.4297597 -0.39265057 6 3
1.035501 -5.1170712 0.64103281 57 11
0.63374615 -3.1345599 -0.39266306 7 4
2.4859815 -12.306923 1.9885952 1 12
2.4957263 -12.388582 2.456475 1 13
0.6616767 -3.2874706 -0.17574416 3 6
2.356576 -11.718978 2.7596996 4 14
0.72057831 -3.5898368 -0.063910715 11 7
0.28555423 -1.4382012 -0.39288735 7 0
0.33574057 -1.6956129 -0.39906317 6 1
0.79340607 -4.0106654 0.21426344 10 9
0.38979501 -1.9722216 -0.39077684 6 2
0.77502191 -3.9249315 0.35001746 22 10
0.4786396 -2.4284267 -0.39202482 5 3
1.0079268 -5.1185274 0.64054531 18 11
0.62039083 -3.1534171 -0.39461297 7 4
2.4401777 -12.414746 2.0039258 3 12
0.79669291 -4.0607786 -0.36204496 3 5
0.80835032 -4.1278229 -0.22043908 6 6
2.4190345 -12.364187 2.908617 3 14
0.77382767 -3.962533 -0.070472814 24 7
0.27948508 -1.4472638 -0.39495787 7 0
0.32604745 -1.69155 -0.39771348 6 1
0.78371483 -4.0736036 0.21740359 15 9
0.38094556 -1.9819472 -0.39230329 6 2
0.75070357 -3.9093692 0.34827435 22 10
0.46485335 -2.4230583 -0.39077336 6 3
0.77764779 -4.0611644 0.50770777 12 11
0.604617 -3.1605217 -0.39510044 8 4
2.3258209 -12.169299 1.9623141 1 12
0.78472471 -4.1097708 -0.36605412 46 5
2.2783849 -11.955045 2.3656502 3 13
0.78560525 -4.1261125 -0.22012506 73 6
2.403425 -12.63513 2.9693539 3 14
0.77504206 -4.0783782 -0.072462395 19 7
0.27190351 -1.4487072 -0.39495787 7 0
0.7772361 -4.1451192 0.073614255 11 8
0.31610957 -1.6874877 -0.39636377 6 1
0.75316703 -4.0245123 0.21457745 24 9
0.37163073 -1.9877098 -0.39306656 6 2
0.73022377 -3.9132464 0.34827435 27 10
0.45179808 -2.4235172 -0.39046046 7 3
0.75635535 -4.0611448 0.50722027 34 11
0.58861274 -3.1635416 -0.39510044 8 4
2.237186 -12.047298 1.9407262 3 12
0.76428491 -4.1197 -0.36657706 85 5
2.2851069 -12.329334 2.4373941 1 13
0.7614392 -4.112361 -0.21918301 100 6
2.3607092 -12.762107 2.9963481 6 14
0.76130092 -4.1236758 -0.07319539 100 7
0.26456743 -1.4500649 -0.39495787 7 0
0.76270002 -4.184411 0.07424254 9 8
0.30657223 -1.6852852 -0.39546397 6 1
0.72494251 -3.9890993 0.21248402 19 9
0.36262074 -1.9973549 -0.39459303 6 2
0.71111864 -3.9208128 0.34862295 30 10
0.43980601 -2.4297371 -0.39108619 7 3
0.73402107 -4.0591893 0.50648904 31 11
0.56921756 -3.1509523 -0.39315054 8 4
2.150219 -11.914615 1.9175739 3 12
0.74270368 -4.1236453 -0.36657706 100 5
2.2302551 -12.395232 2.4480796 1 13
0.74060315 -4.1202235 -0.21939236 100 6
2.832876 -15.776059 3.7004449 0 14
0.73969942 -4.1276054 -0.07319539 99 7
0.25831842 -1.4590393 -0.39702842 7 0
0.73346633 -4.1469955 0.073509537 16 8
0.29977623 -1.6983818 -0.39816338 6 1
0.70404565 -3.9928401 0.21248402 22 9
0.34943321 -1.9837581 -0.39154008 6 2
0.68781769 -3.9087846 0.34722847 28 10
0.42878625 -2.441735 -0.39265057 6 3
0.71172857 -4.0571113 0.50575781 34 11
0.55202568 -3.1499789 -0.39266306 8 4
2.0724757 -11.838149 1.9034947 1 12
0.71767372 -4.107851 -0.36483395 100 5
2.1673484 -12.418344 2.4503694 1 13
0.72142076 -4.1378174 -0.22012506 97 6
2.6131415 -15.003543 3.515985 0 14
0.71704972 -4.1255112 -0.07309068 100 7
0.24871455 -1.4489479 -0.3939226 7 0
0.70464587 -4.1093888 0.072776534 17 8
0.29087937 -1.699928 -0.39816338 6 1
0.6817838 -3.9885967 0.21206531 22 9
0.33904144 -1.9855607 -0.39154008 6 2
0.66466177 -3.8966205 0.34583399 28 10
0.41433829 -2.4342093 -0.39108619 7 3
0.69180679 -4.0686102 0.50673276 37 11
0.53751928 -3.1645687 -0.39412549 7 4
2.010464 -11.848839 1.9034947 1 12
0.69449198 -4.1017299 -0.36396238 87 5
2.1193213 -12.530182 2.4702134 1 13
0.6984148 -4.1336608 -0.21970637 99 6
2.6474097 -15.685722 3.6725507 2 14
0.69411075 -4.1213217 -0.072951064 100 7
0.24049075 -1.446419 -0.39288735 7 0
0.67787725 -4.081459 0.072218053 18 8
0.2813375 -1.6975827 -0.39726356 7 1
0.66023779 -3.9881713 0.21185598 19 9
0.3286404 -1.9873086 -0.39154008 6 2
0.64295149 -3.8921838 0.34513673 28 10
0.40030199 -2.4285493 -0.38983473 7 3
0.66597891 -4.0447545 0.5033204 85 11
0.52287561 -3.1790924 -0.39558792 8 4
2.0470328 -12.459571 1.9998584 1 12
0.67655188 -4.1269383 -0.36587983 100 5
2.0689147 -12.634104 2.4885311 1 13
0.67676133 -4.1372609 -0.21970637 96 6
2.5768704 -15.77053 3.6891975 6 14
0.67380857 -4.1327934 -0.07309068 99 7
1.9197013 -11.787408 3.2000387 15 15
0.23352772 -1.451473 -0.3939226 7 0
0.65586334 -4.0810046 0.072148249 18 8
0.26997676 -1.6836393 -0.39366436 7 1
0.63713503 -3.9777689 0.21112327 27 9
0.31761029 -1.9851251 -0.39077684 5 2
0.62224877 -3.8935297 0.34496242 34 10
0.38664776 -2.4247599 -0.38889611 6 3
0.6404205 -4.020741 0.49990809 44 11
0.50435126 -3.1700239 -0.39412549 7 4
0.65212572 -4.1127138 -0.36431101 97 5
0.65321732 -4.1289115 -0.21907835 99 6
2.4677985 -15.616342 3.6500556 0 14
0.65060288 -4.126389 -0.07291615 99 7
0.22770604 -1.4641292 -0.39702842 7 0
0.63602096 -4.0942626 0.072322771 18 8
0.26294851 -1.6965843 -0.39636377 6 1
0.61416066 -3.9672337 0.21039055 28 9
0.30871183 -1.9964619 -0.39268494 5 2
0.60307014 -3.9046106 0.34565967 34 10
0.37635311 -2.4423697 -0.39139909 6 3
0.61996311 -4.0279636 0.5003956 35 11
0.48714322 -3.1686974 -0.39363801 8 4
0.63028079 -4.1141019 -0.36413667 83 5
2.4900401 -16.272474 3.199867 1 13
0.63189054 -4.1342492 -0.21918301 100 6
1.7389872 -11.390924 2.6602712 3 14
0.6310963 -4.1435771 -0.073160492 100 7
0.21946298 -1.4614805 -0.39599317 7 0
0.61665088 -4.1113791 0.072567105 29 8
0.25348482 -1.6940833 -0.39546397 7 1
0.59633142 -3.9901483 0.21143727 28 9
0.2947762 -1.97475 -0.38810554 5 2
0.58203018 -3.9037733 0.34531105 34 10
0.36385036 -2.4462609 -0.39171195 6 3
0.60119814 -4.0468621 0.5023455 35 11
0.46763158 -3.1515684 -0.3912006 7 4
0.61106247 -4.1331134 -0.36553118 100 5
0.6096521 -4.1335492 -0.21897365 94 6
0.60648453 -4.1270409 -0.072811447 100 7
0.21070033 -1.454962 -0.3939226 7 0
0.59168077 -4.0908027 0.072148249 30 8
0.24461113 -1.6953874 -0.39546397 7 1
0.5745768 -3.9872859 0.21112327 33 9
0.28778845 -1.9995852 -0.39268494 6 2
0.55931413 -3.8909905 0.34391654 34 10
0.35075662 -2.446177 -0.39139909 6 3
0.58000052 -4.0499544 0.5023455 35 11
0.45224786 -3.161834 -0.39217559 7 4
0.79086018 -5.5360875 0.88573205 25 12
0.58519691 -4.1066694 -0.3629165 97 5
0.79280728 -5.5705533 1.0937172 54 13
0.58856308 -4.1406398 -0.21918301 91 6
0.78885072 -5.5566568 1.2957181 49 14
0.5837459 -4.1222391 -0.072671816 100 7
0.78589338 -5.5567298 1.5037388 65 15
0.20094438 -1.4407386 -0.3897815 7 0
0.4880392 -3.503634 0.061746612 77 8
0.23841272 -1.7159468 -0.39996299 7 1
0.55561298 -4.0040879 0.21185598 27 9
0.27623665 -1.9932858 -0.39115849 5 2
0.53948003 -3.8978131 0.34426519 24 10
0.33686307 -2.4401526 -0.39014763 6 3
0.55743092 -4.0431037 0.50112677 30 11
0.43676975 -3.1720247 -0.39315054 7 4
0.76347703 -5.5518947 0.88760924 68 12
0.47786129 -3.4839482 -0.30765978 85 5
0.75830072 -5.5357265 1.0860848 37 13
0.75921756 -5.556849 1.2948182 51 14
0.47764173 -3.5050664 -0.061746612 149 7
0.75574535 -5.5531111 1.5016681 75 15
0.19493896 -1.4532592 -0.39288735 7 0
0.46942231 -3.5041592 0.06171171 118 8
0.22736017 -1.701719 -0.39636377 6 1
0.53437573 -4.0049615 0.2117513 24 9
0.26761147 -2.0083275 -0.39382979 6 2
0.52064055 -3.9124339 0.34531105 18 10
0.32356229 -2.4379666 -0.38952184 6 3
0.53260243 -4.0184164 0.49771443 31 11
0.41963407 -3.1703324 -0.39266306 8 4
0.73180813 -5.5362325 0.8844806 65 12
0.4598732 -3.4883778 -0.30783406 68 5
0.73033023 -5.5474062 1.0876113 73 13
0.45873517 -3.4891436 -0.18443193 65 6
0.72656059 -5.5336981 1.2885196 55 14
0.45694602 -3.4896746 -0.061432473 140 7
0.72440529 -5.539753 1.4970094 86 15
0.18782078 -1.4580921 -0.3939226 7 0
0.45208862 -3.5145025 0.06185133 132 8
0.2181991 -1.7009532 -0.39591387 6 1
0.51289141 -4.0037432 0.21154197 13 9
0.25534835 -1.9960693 -0.39115849 5 2
0.50014734 -3.9151065 0.34531105 13 10
0.31079265 -2.4396272 -0.38952184 6 3
0.51355886 -4.0369039 0.49966437 24 11
0.40252849 -3.1685474 -0.39217559 8 4
0.70231384 -5.5360689 0.88385481 68 12
0.44110161 -3.4867845 -0.30748546 12 5
0.70102853 -5.5492067 1.0872297 76 13
0.44170964 -3.5014055 -0.18495528 15 6
0.69684535 -5.5316257 1.2871699 52 14
0.69611055 -5.5492201 1.4985623 90 15
0.18065718 -1.4628901 -0.39495787 7 0
0.2083386 -1.6943357 -0.39411426 6 1
0.43009597 -3.502851 0.18495528 8 9
0.24369906 -1.9876357 -0.3892504 5 2
0.4796415 -3.9176714 0.34531105 13 10
0.29897195 -2.4490643 -0.39077336 7 3
0.48953259 -4.0158916 0.49673948 33 11
0.38593242 -3.1706119 -0.39217559 7 4
0.67450905 -5.5494752 0.88541919 17 12
0.42571563 -3.5127816 -0.3095772 19 5
0.42456815 -3.5135844 -0.18547864 18 6
0.42157224 -3.504195 -0.061606996 21 7
0.17163479 -1.452305 -0.39185205 7 0
0.41338608 -3.5031564 0.06157209 16 8
0.20318061 -1.7243987 -0.40086278 6 1
0.41081747 -3.4971206 0.18453661 74 9
0.23351716 -1.9908342 -0.38963199 5 2
0.4588902 -3.9181504 0.34513673 6 10
0.28611335 -2.4466224 -0.39014763 6 3
0.46987799 -4.03023 0.49820194 56 11
0.36978486 -3.1765325 -0.39266306 8 4
0.40540367 -3.4931209 -0.30765978 19 5
0.40754089 -3.5276637 -0.18610668 18 6
0.65183318 -5.6509023 1.3132643 0 14
0.40428799 -3.5102572 -0.061676804 22 7
0.64930499 -5.6462965 1.5228913 1 15
0.16576162 -1.4685409 -0.39599317 7 0
0.39436603 -3.4993117 0.061467376 17 8
0.19175197 -1.7041372 -0.39591387 6 1
0.39244264 -3.4932008 0.18422259 71 9
0.22409412 -1.9978439 -0.39077684 6 2
0.42154264 -3.7700155 0.33188906 66 10
0.27154586 -2.4323814 -0.38764465 6 3
0.44793421 -4.0187469 0.49649575 12 11
0.35326305 -3.1744177 -0.39217559 7 4
0.38645014 -3.489255 -0.30713683 16 5
0.39011878 -3.5336518 -0.18631603 22 6
0.61980677 -5.623137 1.3060658 0 14
0.38655832 -3.5182891 -0.061781518 18 7
0.61467648 -5.6035314 1.510468 1 15
0.15832649 -1.4693612 -0.39599317 7 0
0.37622151 -3.4972866 0.061397567 21 8
0.18158011 -1.6934921 -0.39321443 7 1
0.37414682 -3.4952078 0.18422259 71 9
0.21363033 -1.9989898 -0.39077684 6 2
0.40393546 -3.785969 0.33310926 31 10
0.26005948 -2.4455557 -0.38952184 6 3
0.43673596 -4.1138148 0.5079515 1 11
0.33789265 -3.1880682 -0.39363801 8 4
0.36963817 -3.5051005 -0.308357 12 5
0.3688972 -3.5098238 -0.18495528 23 6
0.59360993 -5.6573148 1.3132643 0 14
0.36833921 -3.5222538 -0.06181642 25 7
0.5865314 -5.6182008 1.5135738 1 15
0.14984313 -1.4624829 -0.3939226 7 0
0.35892269 -3.509155 0.06157209 26 8
0.17271051 -1.6944196 -0.39321443 7 1
0.35402155 -3.4792356 0.18328053 70 9
0.20435131 -2.0118001 -0.39306656 6 2
0.38169456 -3.7642453 0.33101749 34 10
0.24804564 -2.4547453 -0.39077336 6 3
0.57457197 -5.6961007 0.70294243 1 11
0.31920645 -3.1700425 -0.3912006 7 4
0.35207471 -3.5149179 -0.30905426 16 5
0.35071346 -3.5136945 -0.18505996 22 6
0.55895662 -5.6099277 1.3015668 0 14
0.35028678 -3.5281138 -0.061886236 20 7
0.55977452 -5.648109 1.5208209 1 15
0.14255735 -1.467093 -0.39495787 7 0
0.34131566 -3.5189476 0.06171171 40 8
0.16383635 -1.6953007 -0.39321443 7 1
0.33599114 -3.4830298 0.18338521 68 9
0.19193301 -1.9933004 -0.3892504 6 2
0.36217079 -3.7681754 0.33119181 34 10
0.23443598 -2.4481449 -0.38952184 6 3
0.53793883 -5.6278925 0.69416779 1 11
0.30260408 -3.1716702 -0.3912006 8 4
1.1221364 -11.783146 1.8747108 2 12
0.33310118 -3.5107627 -0.30853131 21 5
0.3328748 -3.5214479 -0.18537398 22 6
0.53433478 -5.6632204 1.3132643 0 14
0.32975054 -3.5079992 -0.061502282 27 7
0.52730596 -5.6201882 1.5125386 1 15
0.13310601 -1.4485817 -0.3897815 7 0
0.32087722 -3.4987817 0.061327755 8 8
0.15566668 -1.703898 -0.39501405 6 1
0.31811211 -3.4887192 0.18359455 71 9
0.18184955 -1.9981884 -0.39001361 6 2
0.34099379 -3.7541463 0.32979733 33 10
0.22090225 -2.4414697 -0.38827038 6 3
0.51489162 -5.7018051 0.70294243 1 11
0.28670582 -3.1811197 -0.39217559 8 4
1.0604243 -11.78886 1.8747108 2 12
0.31364781 -3.5005517 -0.30748546 20 5
0.31549719 -3.5350788 -0.186002 22 6
0.50467545 -5.6659408 1.3132643 0 14
0.31137815 -3.5096779 -0.061502282 27 7
0.49923515 -5.6382666 1.5166796 1 15
0.12585297 -1.4531082 -0.39081678 7 0
0.30375859 -3.5143597 0.06157209 61 8
0.14674293 -1.7046896 -0.39501405 6 1
0.30001217 -3.4923272 0.18369922 72 9
0.17071375 -1.9912887 -0.38848713 6 2
0.32031292 -3.7439694 0.32875144 34 10
0.20794827 -2.4406242 -0.38795751 6 3
0.48502991 -5.704423 0.70294243 1 11
0.27071685 -3.1904891 -0.39315054 8 4
0.29497978 -3.4981754 -0.30713683 19 5
0.2963151 -3.5287213 -0.18558332 25 6
0.4730489 -5.6452026 1.3078654 0 14
0.29349646 -3.5172384 -0.061606996 22 7
0.46842387 -5.625402 1.5125386 1 15
0.11918244 -1.4653002 -0.3939226 7 0
0.28405911 -3.4999571 0.061292849 23 8
0.13687357 -1.6937802 -0.39231464 7 1
0.28172222 -3.49385 0.18369922 72 9
0.16059993 -1.9960693 -0.3892504 6 2
0.30198106 -3.7614834 0.33014596 34 10
0.19516629 -2.4416797 -0.38795751 6 3
0.45515555 -5.7068844 0.70294243 1 11
0.25369316 -3.1879051 -0.39266306 8 4
0.2768167 -3.5016582 -0.30731115 20 5
0.4463031 -5.6581941 1.1032577 1 13
0.27673769 -3.5162864 -0.1848506 28 6
0.44226435 -5.6320601 1.3042662 0 14
0.27538785 -3.5227141 -0.061676804 30 7
0.43716004 -5.6046648 1.5063269 1 15
0.11180153 -1.4697567 -0.39495787 7 0
0.26572984 -3.5013964 0.061292849 100 8
0.12829643 -1.69836 -0.39321443 7 1
0.26192397 -3.4753611 0.1826525 61 9
0.15058812 -2.0027559 -0.39039519 6 2
0.28332508 -3.7769208 0.33136615 37 10
0.18326172 -2.4544876 -0.38983473 6 3
0.42526799 -5.7091894 0.70294243 1 11
0.23670357 -3.1852307 -0.39217559 8 4
0.25994435 -3.5229294 -0.30905426 22 5
0.41667062 -5.6604533 1.1032577 1 13
0.25832301 -3.5176871 -0.1848506 26 6
0.41561645 -5.6731691 1.3132643 0 14
0.25693914 -3.5241079 -0.061676804 31 7
0.40921009 -5.6261449 1.5115032 1 15
0.10410453 -1.470322 -0.39495787 7 0
0.24851993 -3.5186973 0.06157209 37 8
0.11967549 -1.7028964 -0.39411426 6 1
0.24386302 -3.478677 0.18275717 62 9
0.14009961 -2.0035169 -0.39039519 6 2
0.26340699 -3.7763646 0.33119181 42 10
0.16986045 -2.447531 -0.38858327 6 3
0.39043358 -5.6400452 0.69416779 1 11
0.21865538 -3.1666226 -0.3897382 8 4
0.24081366 -3.5143037 -0.30818272 21 5
0.24058008 -3.528955 -0.18537398 30 6
0.38326189 -5.6363826 1.3042662 0 14
0.23767395 -3.5134339 -0.061467376 37 7
0.38182676 -5.65905 1.5197855 1 15
0.09615162 -1.4669915 -0.3939226 7 0
0.23061478 -3.5279322 0.06171171 47 8
0.11025173 -1.6957211 -0.39231464 7 1
0.22590376 -3.4838924 0.18296652 62 9
0.12872066 -1.9905088 -0.38772389 6 2
0.24286099 -3.7657628 0.33014596 18 10
0.15641065 -2.4385302 -0.38701892 7 3
0.3654595 -5.7133298 0.70294243 1 11
0.20207192 -3.1677241 -0.3897382 8 4
0.7765457 -12.206858 1.9372847 1 12
0.22203244 -3.509551 -0.30765978 23 5
0.22209916 -3.5301661 -0.18537398 30 6
0.35374522 -5.6383119 1.3042662 0 14
0.21890081 -3.5086429 -0.061362665 42 7
0.35147166 -5.6494026 1.5166796 1 15
0.088004284 -1.4597615 -0.39185205 7 0
0.21093945 -3.5091305 0.061362665 50 8
0.10206892 -1.7079468 -0.39501405 6 1
0.2080158 -3.4910088 0.18328053 70 9
0.11818016 -1.9891958 -0.3873423 6 2
0.22172633 -3.7431159 0.32805422 55 10
0.14271165 -2.4235401 -0.38451597 7 3
0.33553946 -5.7151647 0.70294243 1 11
0.18594691 -3.1766653 -0.39071316 8 4
0.20365338 -3.5106654 -0.30765978 25 5
0.32770932 -5.6662998 1.1032577 1 13
0.2034976 -3.5292866 -0.18526931 37 6
0.32421809 -5.6400871 1.3042662 0 14
0.20052697 -3.5097411 -0.061362665 42 7
0.32056758 -5.6280212 1.510468 1 15
0.080572069 -1.4640601 -0.39288735 7 0
0.19212459 -3.5021999 0.061223041 50 8
0.092572041 -1.6928749 -0.39141485 8 1
0.18995073 -3.4960389 0.18348989 72 9
0.10882479 -2.0093911 -0.39115849 6 2
0.20309134 -3.7621305 0.32962301 55 10
0.1309738 -2.434094 -0.38608032 6 3
0.30561092 -5.7168436 0.70294243 1 11
0.16888922 -3.1696668 -0.3897382 8 4
0.30338597 -5.7126408 0.9060685 2 12
0.18577626 -3.5096614 -0.30748546 22 5
0.29803607 -5.6679382 1.1032577 1 13
0.18438827 -3.5183365 -0.18464127 37 6
0.2946828 -5.6417069 1.3042662 0 14
0.18317571 -3.5186989 -0.061502282 47 7
0.29147741 -5.6179962 1.5073622 2 15
0.072905138 -1.4644619 -0.39288735 6 0
0.17428024 -3.5131443 0.061397567 51 8
0.084284157 -1.7050146 -0.39411426 6 1
0.17146707 -3.4809968 0.1826525 63 9
0.098556891 -2.0079553 -0.39077684 6 2
0.1844568 -3.7850327 0.33154044 30 10
0.11841869 -2.4386923 -0.38670605 6 3
0.26832509 -5.5458159 0.68173718 13 11
0.15227032 -3.1585839 -0.38827574 7 4
0.26544446 -5.5464358 0.87947464 25 12
0.16806181 -3.5245171 -0.30870563 28 5
0.26450008 -5.5674 1.0834136 61 13
0.16657791 -3.5192249 -0.18464127 40 6
0.2616255 -5.5477443 1.282221 54 14
0.16428177 -3.5096221 -0.061327755 48 7
0.066009924 -1.4763916 -0.39599317 6 0
0.1567632 -3.5199745 0.061502282 60 8
0.075527579 -1.709326 -0.39501405 6 1
0.15323861 -3.4818468 0.1826525 65 9
0.087354042 -1.9927528 -0.38772389 6 2
0.16494893 -3.7779562 0.33084321 36 10
0.10599026 -2.4471729 -0.38795751 6 3
0.23919797 -5.5451622 0.68149346 61 11
0.13572988 -3.159338 -0.38827574 7 4
0.23694631 -5.5378408 0.87791038 61 12
0.14943618 -3.5213675 -0.308357 28 5
0.23468168 -5.5530167 1.0803605 71 13
0.14831732 -3.5240397 -0.1848506 40 6
0.23224747 -5.5412498 1.2804214 54 14
0.1458205 -3.5084364 -0.061292849 52 7
0.22967535 -5.5493231 1.4882096 77 15
0.057669178 -1.4612743 -0.39185205 6 0
0.13848744 -3.5247431 0.06157209 62 8
0.066728361 -1.7135926 -0.39591387 6 1
0.14545009 -3.7520292 0.19678321 31 9
0.077221617 -2.0010302 -0.3892504 6 2
0.14470682 -3.7668223 0.32979733 12 10
0.093325675 -2.4516425 -0.38858327 6 3
0.210536 -5.5562563 0.68271214 78 11
0.11978462 -3.1758745 -0.39022568 7 4
0.20772457 -5.5330834 0.87697172 65 12
0.13062638 -3.5121467 -0.30748546 27 5
0.20516773 -5.5423975 1.0780709 67 13
0.13015755 -3.5327518 -0.18526931 38 6
0.20323029 -5.5423899 1.2804214 51 14
0.12737574 -3.5071535 -0.061257947 56 7
0.1972665 -5.4577808 1.4633629 41 15
0.04975285 -1.4538331 -0.3897815 7 0
0.11996236 -3.5234218 0.061537188 97 8
0.057229813 -1.6983376 -0.39231464 7 1
0.17304529 -5.1620126 0.27068159 40 9
0.06713599 -2.0131798 -0.39154008 6 2
0.17109022 -5.1574516 0.45146674 80 10
0.080034234 -2.438277 -0.38639316 5 3
0.16893917 -5.1743636 0.63567054 61 11
0.1034118 -3.1843944 -0.3912006 8 4
0.16695218 -5.1688409 0.8190909 54 12
0.11248948 -3.5207481 -0.30818272 33 5
0.16423562 -5.1686039 1.0051818 73 13
0.11146943 -3.527396 -0.18495528 46 6
0.16239432 -5.1674566 1.1935903 56 14
0.10938319 -3.5197644 -0.061467376 56 7
0.15949829 -5.161376 1.3836466 66 15
0.042251993 -1.4579359 -0.39081678 7 0
0.10105142 -3.5080106 0.061257947 61 8
0.048392158 -1.7005618 -0.39276454 7 1
0.1458458 -5.1568584 0.27036759 40 9
0.056483734 -2.0095789 -0.39077684 6 2
0.14413904 -5.1602683 0.45164105 78 10
0.067538641 -2.4485359 -0.38795751 6 3
0.14162631 -5.1672401 0.63469559 76 11
0.086629175 -3.1809235 -0.39071316 8 4
0.13993986 -5.1716189 0.81940383 62 12
0.093680896 -3.5073471 -0.30696252 24 5
0.13701491 -5.1635051 1.0040369 73 13
0.092945792 -3.5259347 -0.1848506 47 6
0.13533527 -5.1682363 1.1935903 56 14
0.091004252 -3.5222881 -0.061502282 60 7
0.13261977 -5.1679339 1.3851995 68 15
0.034892581 -1.469725 -0.3939226 7 0
0.082729176 -3.5104907 0.061292849 55 8
0.039306417 -1.692999 -0.39096493 7 1
0.11870444 -5.1515613 0.27005357 45 9
0.046050798 -2.0137725 -0.39154008 6 2
0.1174349 -5.1748958 0.45286122 75 10
0.054628622 -2.4449062 -0.38733178 6 3
0.11443729 -5.1619568 0.63396436 78 11
0.069885351 -3.1773643 -0.39022568 7 4
0.11285932 -5.1722808 0.81940383 64 12
0.075828761 -3.5316927 -0.30905426 31 5
0.1099769 -5.1641517 1.0040369 73 13
0.074609235 -3.5323637 -0.18516463 51 6
0.10810986 -5.1610804 1.1917907 56 14
0.072725005 -3.5307133 -0.061641898 57 7
0.10563814 -5.1724205 1.3862349 65 15
0.027125316 -1.4660245 -0.39288735 7 0
0.064860538 -3.5388668 0.061781518 60 8
0.03058145 -1.7009753 -0.39276454 7 1
0.091978699 -5.1660905 0.27078626 65 9
0.035159979 -1.9943565 -0.38772389 6 2
0.09030275 -5.1734476 0.45268691 71 10
0.041894488 -2.4491088 -0.38795751 6 3
0.087542102 -5.1704245 0.63493931 78 11
0.053181183 -3.1737173 -0.3897382 7 4
0.08557979 -5.1609502 0.81752664 62 12
0.057335764 -3.5320413 -0.30905426 35 5
0.082968011 -5.1666198 1.0044186 71 13
0.056049716 -3.5287118 -0.18495528 46 6
0.081084937 -5.1615758 1.1917907 56 14
0.054053329 -3.5190492 -0.061432473 58 7
0.078494586 -5.1690392 1.3851995 65 15
0.019397581 -1.4622831 -0.39185205 6 0
0.046303943 -3.5371583 0.061746612 63 8
0.021774229 -1.7089064 -0.39456415 6 1
0.024765695 -1.9984396 -0.38848713 6 2
0.063019194 -5.1579118 0.45129246 80 10
0.029023184 -2.445344 -0.38733178 7 3
0.06049237 -5.1727972 0.6351831 76 11
0.036608957 -3.177922 -0.39022568 8 4
0.058555853 -5.1613274 0.81752664 62 12
0.038600627 -3.5103781 -0.30713683 32 5
0.055956904 -5.1709094 1.0051818 70 13
0.037657645 -3.5369453 -0.18537398 47 6
0.05409798 -5.1658268 1.1926905 56 14
0.035545852 -3.5112853 -0.061292849 60 7
0.051389948 -5.1655159 1.3841642 64 15
0.011678753 -1.4546374 -0.3897815 7 0
0.027626092 -3.5173559 0.061397567 58 8
0.012796837 -1.7050998 -0.39366436 7 1
0.025826305 -3.5230703 0.18464127 11 9
0.01432985 -2.0024683 -0.3892504 6 2
0.036039289 -5.1621552 0.45164105 78 10
0.01619304 -2.4415121 -0.38670605 6 3
0.033445202 -5.178998 0.63591433 78 11
0.019894002 -3.1661599 -0.38876322 7 4
0.031554442 -5.165514 0.81815231 62 12
0.020231215 -3.5125246 -0.30731115 29 5
0.02883737 -5.1632786 1.0036553 75 13
0.019159699 -3.5410886 -0.18558332 46 6
0.027049556 -5.166039 1.1926905 56 14
0.017228663 -3.5254214 -0.061537188 55 7
0.024315879 -5.1599188 1.3826115 62 15
0.0041054366 -1.4701334 -0.3939226 6 0
0.009198348 -3.513453 0.061327755 46 8
0.0041570151 -1.7012451 -0.39276454 7 1
0.007366586 -3.5171654 0.18432724 74 9
0.0038407091 -2.0005524 -0.38886875 6 2
0.0090131992 -5.1642652 0.45181534 76 10
0.003835445 -2.4415627 -0.38670605 7 3
0.0071980888 -5.1552801 0.63298941 76 11
0.0033285504 -3.1781311 -0.39022568 7 4
0.0045114104 -5.169559 0.8187781 64 12
0.0024565356 -3.518559 -0.30783406 32 5
0.0027031398 -5.1633587 1.0036553 75 13
0.0006147885 -3.521168 -0.18453661 45 6
-2.2581784e-07 -5.16611 1.1926905 56 14
-0.00061675033 -3.5354617 -0.06171171 48 7
-0.0018026957 -5.165771 1.3841642 64 15
-0.0033267341 -1.4662716 -0.39288735 6 0
-0.0086046048 -3.5214531 0.061467376 47 8
-0.0044640698 -1.7051419 -0.39366436 7 1
-0.010400036 -3.5051744 0.18369922 70 9
-0.0062910374 -2.0025096 -0.3892504 6 2
-0.017164798 -5.1761994 0.45286122 76 10
-0.0084880618 -2.431674 -0.3851417 7 3
-0.018902039 -5.1572351 0.63323313 76 11
-0.012725685 -3.1701672 -0.38925073 8 4
-0.02167023 -5.1734667 0.81940383 62 12
-0.01537002 -3.5225112 -0.30818272 25 5
-0.023438836 -5.1652689 1.0040369 73 13
-0.01723684 -3.5271175 -0.1848506 38 6
-0.026098486 -5.1563005 1.190441 55 14
-0.01849049 -3.5314138 -0.061641898 50 7
-0.027980505 -5.1714911 1.3857172 62 15
-0.010719882 -1.4623724 -0.39185205 6 0
-0.026487891 -3.5293634 0.061606996 47 8
-0.013391938 -1.7050952 -0.39366436 7 1
-0.028077152 -3.497088 0.18328053 67 9
-0.016394421 -1.9985257 -0.38848713 6 2
-0.043379918 -5.1780391 0.45303556 80 10
-0.021375349 -2.449374 -0.38795751 6 3
-0.046010494 -5.1689754 0.63469559 76 11
-0.028807307 -3.1740322 -0.3897382 8 4
-0.047782287 -5.1653891 0.81815231 62 12
-0.033908904 -3.5323439 -0.30905426 28 5
-0.050522272 -5.1690021 1.0048002 73 13
-0.035208289 -3.5389681 -0.18547864 33 6
-0.052235533 -5.1599998 1.1913408 55 14
-0.036917917 -3.52527 -0.061537188 45 7
-0.055099215 -5.1751375 1.3867525 62 15
-0.018328175 -1.4584329 -0.39081678 6 0
-0.044915922 -3.5251772 0.061537188 47 8
-0.022268627 -1.7011045 -0.39276454 7 1
-0.046572566 -3.5108726 0.18401325 68 9
-0.026805485 -1.9944863 -0.38772389 6 2
-0.070301689 -5.1637945 0.45181534 76 10
-0.034116961 -2.4433031 -0.38701892 7 3
-0.073074646 -5.168664 0.63469559 75 11
-0.045255706 -3.1619284 -0.38827574 7 4
-0.074769795 -5.161118 0.81752664 62 12
-0.052226473 -3.520165 -0.3080084 28 5
-0.077586509 -5.1686668 1.0048002 73 13
-0.053646464 -3.5327442 -0.18516463 32 6
-0.079312466 -5.1635528 1.1922406 55 14
-0.055250108 -3.5170305 -0.061397567 41 7
-0.081980124 -5.1612568 1.383129 64 15
-0.025964113 -1.458317 -0.39081678 6 0
-0.063157894 -3.5128973 0.061327755 47 8
-0.030807715 -1.6970731 -0.39186475 7 1
-0.065065719 -3.5165715 0.18432724 70 9
-0.037284922 -1.9962817 -0.38810554 5 2
-0.097300224 -5.1613641 0.45164105 78 10
-0.046370532 -2.4371741 -0.38608032 7 3
-0.10025278 -5.1741648 0.63542682 76 11
-0.062120993 -3.1775258 -0.39022568 8 4
-0.10202615 -5.1725059 0.81940383 62 12
-0.070161991 -3.5258315 -0.30853131 30 5
-0.10452875 -5.1623011 1.0036553 70 13
-0.072387896 -3.5443959 -0.18579267 31 6
-0.10666882 -5.1786532 1.1958399 54 14
-0.073133014 -3.5207043 -0.061467376 36 7
-0.10818361 -5.1646385 1.3841642 64 15
-0.033777524 -1.4658864 -0.39288735 7 0
-0.081596568 -3.5145178 0.061362665 45 8
-0.03951069 -1.6890957 -0.39006513 7 1
-0.082863547 -3.516197 0.18432724 71 9
-0.047621578 -2.0058808 -0.39001361 6 2
-0.12451576 -5.1687512 0.45233828 82 10
-0.059035119 -2.4329481 -0.3854546 6 3
-0.12634283 -5.1696219 0.63493931 78 11
-0.078105509 -3.1732018 -0.3897382 7 4
-0.12935451 -5.1817746 0.82096815 60 12
-0.088772081 -3.5313911 -0.30905426 27 5
-0.13075569 -5.1656313 1.0044186 75 13
-0.089919344 -3.5280111 -0.18495528 30 6
-0.13257918 -5.1663585 1.1931404 54 14
-0.091982417 -3.5362651 -0.061746612 37 7
-0.13527478 -5.1659327 1.3846819 62 15
-0.041196652 -1.4656966 -0.39288735 7 0
-0.099496856 -3.5180576 0.061432473 38 8
-0.048354261 -1.6888658 -0.39006513 7 1
-0.10098569 -3.5057328 0.18380389 68 9
-0.057895996 -1.9977542 -0.38848713 6 2
-0.15090799 -5.1760211 0.45303556 78 10
-0.071539916 -2.4247074 -0.38420308 6 3
-0.15334977 -5.1669054 0.63469559 75 11
-0.09436392 -3.1608441 -0.38827574 7 4
-0.15546174 -5.1771045 0.82034248 60 12
-0.10750323 -3.5388436 -0.30975151 24 5
-0.15792108 -5.1688004 1.0051818 71 13
-0.10839038 -3.527492 -0.18495528 25 6
-0.15962784 -5.1655936 1.1931404 54 14
-0.11043502 -3.5337365 -0.06171171 33 7
-0.16256389 -5.1728768 1.3867525 62 15
-0.048934698 -1.4673916 -0.39340496 6 0
