# .PCD v0.7 - Point Cloud Data file format
VERSION 0.7
FIELDS x y z intensity ring
SIZE 4 4 4 4 2
TYPE F F F F U
COUNT 1 1 1 1 1
WIDTH 1211
HEIGHT 1
VIEWPOINT 0 0 0 1 0 0 0
POINTS 1211
DATA ascii
0.0098474659 -1.9455602 -0.37818345 3 2
0.0094734402 -2.010299 0.17588028 100 10
0.0090895211 -2.0030115 -0.31724915 3 3
0.008774274 -2.0108795 0.24690731 100 11
0.0084067006 -2.0069108 -0.24641983 8 4
0.0074407002 -1.9378304 0.30692446 84 12
0.0067847073 -1.9436101 0.37780184 96 13
0.0026028939 -0.78491855 -0.041136064 8 6
0.0061527584 -1.9584742 0.4521516 91 14
0.0050930446 -1.9453682 0.52126157 90 15
0.0013784239 -1.974352 -0.52902615 0 0
0.0010479344 -2.0016949 0.034939718 50 8
0.00034773137 -1.9916126 -0.45979998 0 1
-8.773948e-08 -2.0072453 0.10519528 23 9
-0.00034042873 -1.9514748 -0.37932828 3 2
-0.00070432143 -2.0182903 0.17657752 100 10
-0.0013983834 -2.0030317 -0.31724915 5 3
-0.0017424577 -1.9970022 0.24520114 100 11
-0.0021120049 -2.0168526 -0.24763852 9 4
-0.0023747052 -1.9437692 0.30786306 81 12
-0.0033784332 -1.9357659 0.37627536 87 13
-0.0014686341 -0.76494879 -0.040089346 8 6
-0.0044434723 -1.9584788 0.4521516 85 14
-0.0051132133 -1.9530954 0.52333212 88 15
-0.0093584992 -1.9859214 -0.53213197 0 0
-0.0097722914 -1.9996716 0.034904812 37 8
-0.0099817337 -1.9720999 -0.45530096 0 1
-0.010509796 -2.0072179 0.10519528 20 9
-0.01085507 -1.9435915 -0.37780184 3 2
-0.011624322 -2.0182571 0.17657752 100 10
-0.011991506 -2.0207748 -0.32006493 5 3
-0.012211113 -1.9989508 0.24544489 100 11
-0.012921414 -2.0009313 -0.2456886 9 4
-0.012917686 -1.9476788 0.30848882 86 12
-0.01354148 -1.939648 0.3770386 87 13
-0.0059879487 -0.81685704 -0.042810816 7 6
-0.01461027 -1.9467368 0.44945222 91 14
-0.015726941 -1.9588345 0.52488506 86 15
-0.019795107 -1.9897089 -0.5331673 0 0
-0.020343421 -2.0095909 0.035079334 35 8
-0.020588219 -1.9993014 -0.46159956 0 1
-0.021284694 -1.999143 0.10477659 15 9
-0.021031346 -1.9435081 -0.37780184 3 2
-0.022367027 -2.0341067 0.17797202 100 10
-0.022616263 -2.0246351 -0.32069072 5 3
-0.023026071 -1.9988556 0.24544489 100 11
-0.023305278 -1.9928966 -0.24471366 9 4
-0.023068679 -1.9436338 0.30786306 86 12
-0.024157437 -1.949362 0.37894669 93 13
-0.010264935 -0.81681448 -0.042810816 7 6
-0.024778133 -1.9446849 0.4490023 89 14
-0.02561583 -1.9567981 0.52436739 88 15
-0.029919397 -1.9702618 -0.52799088 0 0
-0.030773241 -2.0034587 0.034974623 38 8
-0.030874675 -1.9874753 -0.45890018 0 1
-0.031591289 -2.0109918 0.10540463 14 9
-0.030774575 -1.9374877 -0.37665698 5 2
-0.032887962 -2.0259931 0.17727478 100 10
-0.033216711 -2.0244889 -0.32069072 5 3
-0.033307519 -2.0086374 0.24666359 100 11
-0.033724587 -2.0126011 -0.24715105 9 4
-0.033076081 -1.933611 0.3062987 84 12
-0.033920772 -1.9433259 0.37780184 90 13
-0.013694893 -0.77681309 -0.040717378 8 6
-0.034759574 -1.9523284 0.45080194 89 14
-0.035719451 -1.9489111 0.52229685 88 15
-0.039969448 -1.9739479 -0.52902615 0 0
-0.040872488 -2.0012779 0.034939718 34 8
-0.041401859 -1.9931313 -0.46024984 1 1
-0.042162005 -2.0127957 0.1055093 11 9
-0.041250512 -1.9530026 -0.37970993 5 2
-0.04288755 -2.0138493 0.17622891 100 10
-0.043901984 -2.0282369 -0.32131645 5 3
-0.043997511 -2.0163739 0.24763852 100 11
-0.044261873 -2.0123968 -0.24715105 9 4
-0.043168847 -1.9472432 0.30848882 81 12
-0.044006258 -1.9391961 0.3770386 87 13
-0.018675322 -0.81666547 -0.042810816 7 6
-0.045161061 -1.9599124 0.45260152 87 14
-0.045832444 -1.9448347 0.52126157 88 15
-0.050107613 -1.9659865 -0.5269556 0 0
-0.051248033 -1.9970385 0.034869909 30 8
-0.051279951 -1.9714583 -0.45530096 1 1
-0.052804999 -2.0165405 0.10571864 9 9
-0.051165242 -1.9409844 -0.37742022 5 2
-0.053642649 -2.021564 0.17692617 100 10
-0.053990368 -2.0082326 -0.31818774 5 3
-0.054393329 -2.0101628 0.24690731 100 11
-0.055230524 -2.0280125 -0.24910097 9 4
-0.053580519 -1.9548891 0.30974028 89 12
-0.054104712 -1.9369767 0.37665698 93 13
-0.022053286 -0.78461295 -0.041136064 8 6
-0.055422325 -1.9596491 0.45260152 89 14
-0.056181852 -1.9503611 0.52281445 86 15
-0.06123127 -1.9927305 -0.53420252 0 0
-0.061827127 -2.0007401 0.034939718 26 8
-0.06168152 -1.9848081 -0.45845026 1 1
-0.063048974 -2.0062549 0.10519528 9 9
-0.061699599 -1.9524635 -0.37970993 6 2
-0.06447994 -2.0292206 0.17762341 99 10
-0.064154074 -2.0079336 -0.31818774 6 3
-0.064597383 -1.99993 0.2456886 100 11
-0.065204136 -2.0078549 -0.24666359 9 4
-0.063815355 -1.9545816 0.30974028 89 12
-0.064571448 -1.9464777 0.37856507 87 13
-0.026427399 -0.79247135 -0.041554753 7 6
-0.065551713 -1.9554368 0.45170173 89 14
-0.066379629 -1.9597057 0.52540272 88 15
-0.071664385 -1.9923825 -0.53420252 0 0
-0.072446629 -2.0043857 0.035009526 23 8
-0.070870511 -1.9513513 -0.45080194 2 1
-0.072911441 -1.9979264 0.10477659 9 9
-0.071581177 -1.9521261 -0.37970993 6 2
-0.075251237 -2.0328374 0.17797202 100 10
-0.075180672 -2.0213883 -0.32037783 6 3
-0.075015441 -2.0075123 0.24666359 100 11
-0.075663924 -2.015434 -0.24763852 9 4
-0.073600128 -1.9423769 0.30786306 84 12
-0.074572273 -1.9500494 0.37932828 96 13
-0.031358186 -0.81627685 -0.042810816 7 6
-0.075147703 -1.9472907 0.44990209 89 14
-0.076639749 -1.9593313 0.52540272 88 15
-0.081589453 -1.9881339 -0.5331673 1 0
-0.082673207 -2.0059915 0.035044432 22 8
-0.082543477 -1.9860005 -0.45890018 1 1
-0.083704747 -2.0054994 0.10519528 8 9
-0.081472695 -1.9438785 -0.37818345 6 2
-0.085036531 -2.0204868 0.17692617 100 10
-0.085596137 -2.0170195 -0.3197521 6 3
-0.086117096 -2.0209751 0.24836974 100 11
-0.08587604 -2.0070772 -0.24666359 9 4
-0.08334548 -1.9400059 0.30755019 81 12
-0.084867015 -1.9515938 0.37970993 93 13
-0.035631791 -0.81610149 -0.042810816 7 6
-0.085854523 -1.9585518 0.45260152 87 14
-0.086555302 -1.9511833 0.52333212 88 15
-0.092176855 -1.991539 -0.53420252 0 0
-0.092804 -1.9975408 0.034904812 19 8
-0.093487762 -1.9972205 -0.46159956 2 1
-0.095047794 -2.0229893 0.10613733 7 9
-0.092389353 -1.9591138 -0.3812364 6 2
-0.095614642 -2.0200138 0.17692617 100 10
-0.096344031 -2.0204902 -0.32037783 6 3
-0.096792892 -2.0224795 0.24861349 100 11
-0.09714587 -2.0224626 -0.24861349 9 4
-0.093692228 -1.9434891 0.30817595 86 12
-0.094893284 -1.9472008 0.37894669 93 13
-0.039318923 -0.80393451 -0.042182785 7 6
-0.096299402 -1.9619682 0.45350131 87 14
-0.096770294 -1.9507033 0.52333212 88 15
-0.10180768 -1.9755946 -0.53006142 0 0
-0.10284882 -1.9890394 0.034765195 15 8
-0.10252537 -1.9694583 -0.45530096 2 1
-0.10553468 -2.020469 0.10603265 8 9
-0.10244052 -1.9546821 -0.38047317 7 2
-0.10639913 -2.0234647 0.17727478 100 10
-0.10671317 -2.0160127 -0.3197521 6 3
-0.10706546 -2.0159981 0.24788228 100 11
-0.10805076 -2.0278728 -0.24934469 10 4
-0.10471065 -1.9587524 0.31067887 86 12
-0.10455816 -1.9368752 0.3770386 87 13
-0.042879734 -0.79175156 -0.041554753 7 6
-0.10688813 -1.9672747 0.45485103 85 14
-0.10719449 -1.9540277 0.52436739 88 15
-0.11368383 -2.002037 -0.53730839 0 0
-0.11405782 -2.0024488 0.035009526 12 8
-0.11283606 -1.9688945 -0.45530096 1 1
-0.11576857 -2.013907 0.10571864 7 9
-0.11244759 -1.950199 -0.37970993 6 2
-0.11722285 -2.0268579 0.17762341 100 10
-0.11726732 -2.0154264 -0.3197521 6 3
-0.11715691 -2.0074828 0.24690731 100 11
-0.11785525 -2.0134075 -0.24763852 11 4
-0.11473371 -1.9542333 0.31005314 81 12
-0.11516259 -1.9441406 0.37856507 90 13
-0.046077158 -0.77556622 -0.040717378 8 6
-0.11660753 -1.9569616 0.45260152 89 14
-0.11788777 -1.9611534 0.526438 88 15
-0.12440395 -2.0052707 -0.53834367 0 0
-0.12478941 -2.0058157 0.035079334 12 8
-0.12363014 -1.9760565 -0.45710054 2 1
-0.12593639 -2.0072932 0.10540463 6 9
-0.12315039 -1.9574211 -0.3812364 6 2
-0.12858661 -2.0381472 0.17866927 100 10
-0.12831876 -2.0226703 -0.32100356 6 3
-0.12804458 -2.012785 0.24763852 100 11
-0.1281431 -2.0088005 -0.24715105 10 4
-0.12471207 -1.949663 0.30942741 89 12
-0.12609841 -1.9552659 0.38085476 96 13
-0.048590649 -0.75139719 -0.039461315 18 6
-0.12660041 -1.952435 0.45170173 89 14
-0.12828077 -1.9624367 0.5269556 84 15
-0.13334526 -1.9814616 -0.53213197 0 0
-0.13596325 -2.0151107 0.03525386 11 8
-0.13529375 -1.9948246 -0.46159956 2 1
-0.13712235 -2.0165699 0.10592799 6 9
-0.13339777 -1.9567494 -0.3812364 6 2
-0.13844118 -2.0255191 0.17762341 100 10
-0.13985543 -2.0357656 -0.32319364 6 3
-0.13926353 -2.0219891 0.24885722 100 11
-0.13947968 -2.0199845 -0.24861349 10 4
-0.1347824 -1.9470128 0.30911455 84 12
-0.13619809 -1.9526205 0.38047317 93 13
-0.053360231 -0.76308686 -0.040089346 17 6
-0.13709395 -1.9556333 0.45260152 89 14
-0.13800994 -1.95403 0.52488506 86 15
-0.14259999 -1.9653223 -0.52799088 0 0
-0.1453518 -1.9984159 0.034974623 11 8
-0.14482197 -1.9863402 -0.45979998 2 1
-0.14694937 -2.0058644 0.10540463 6 9
-0.1432099 -1.9501503 -0.38009155 7 2
-0.14875239 -2.0207927 0.17727478 100 10
-0.1495762 -2.0271518 -0.32194218 5 3
-0.1501423 -2.0251915 0.24934469 100 11
-0.14946596 -2.011308 -0.24763852 9 4
-0.1454151 -1.9521902 0.31005314 89 12
-0.14597957 -1.9460071 0.37932828 96 13
-0.05885246 -0.78271335 -0.041136064 8 6
-0.14821051 -1.9665481 0.45530096 87 14
-0.14804409 -1.955233 0.52540272 90 15
-0.15348779 -1.9722527 -0.53006142 0 0
-0.15612452 -2.0016146 0.035044432 10 8
-0.15522048 -1.9855546 -0.45979998 2 1
-0.15928423 -2.0329711 0.10687003 7 9
-0.15338612 -1.9533147 -0.38085476 7 2
-0.15901765 -2.0160139 0.17692617 100 10
-0.16018808 -2.0263407 -0.32194218 7 3
-0.16007704 -2.0204477 0.24885722 100 11
-0.16168693 -2.0362508 -0.25080714 12 4
-0.15642026 -1.9612476 0.31161749 97 12
-0.1559837 -1.9472004 0.37970993 100 13
-0.063452721 -0.79036891 -0.041554753 7 6
-0.15800595 -1.9638302 0.45485103 95 14
-0.1584356 -1.9563563 0.52592033 100 15
-0.1645858 -1.9849272 -0.53368485 3 0
-0.16807517 -2.0227201 0.035428386 52 8
-0.16429785 -1.9730914 -0.45710054 5 1
-0.16876169 -2.0181773 0.10613733 50 9
-0.16459523 -1.9642233 -0.3831445 9 2
-0.17021972 -2.0270953 0.17797202 100 10
-0.17027669 -2.0235357 -0.32162929 9 3
-0.16948369 -2.0057359 0.24715105 100 11
-0.17117387 -2.0215304 -0.24910097 13 4
-0.16751394 -1.9742088 0.31380758 100 12
-0.17099236 -2.0110343 -0.17657752 1 5
-0.16734621 -1.9600501 0.38238126 100 13
-0.065547191 -0.76614594 -0.040298689 8 6
-0.16861933 -1.9668591 0.45575082 100 14
-0.17081302 -1.9883726 -0.034835003 2 7
-0.168667 -1.9593788 0.5269556 100 15
-0.17633435 -1.9994333 -0.537826 3 0
-0.17848758 -2.0198205 0.03539348 47 8
-0.17582984 -1.9857919 -0.46024984 5 1
-0.17773874 -2.003371 0.10540463 24 9
-0.17279637 -1.9438095 -0.37932828 11 2
-0.18189393 -2.0380833 0.1790179 100 10
-0.18139742 -2.0285192 -0.32256791 5 3
-0.17998782 -2.0088065 0.24763852 100 11
-0.18033864 -2.008775 -0.24763852 9 4
-0.17536618 -1.945761 0.30942741 100 12
-0.17638026 -1.9494016 0.38047317 100 13
-0.073751837 -0.81354278 -0.042810816 7 6
-0.17716193 -1.9504545 0.4521516 100 14
-0.16996355 -1.8639822 -0.032670904 8 7
-0.17909978 -1.9603927 0.52747321 100 15
-0.18518266 -1.9811716 -0.5331673 0 0
-0.1864506 -1.9909842 0.034904812 10 8
-0.18658915 -1.9887247 -0.46114969 0 1
-0.18801363 -1.9964147 0.10509061 10 9
-0.18331087 -1.9428461 -0.37932828 5 2
-0.18918809 -2.0013993 0.17588028 30 10
-0.18996738 -2.0059092 -0.31912637 0 3
-0.18988694 -1.993937 -0.24593236 1 4
-0.18611439 -1.9507154 0.310366 44 12
-0.19166286 -2.0051668 -0.17622891 1 5
-0.18695922 -1.95236 0.3812364 38 13
-0.078152455 -0.81313187 -0.042810816 7 6
-0.18752554 -1.9475278 0.45170173 38 14
-0.17453657 -1.8093244 -0.031728476 10 7
-0.18750341 -1.9401993 0.52229685 44 15
-0.18964693 -1.9203645 0.033683144 11 8
-0.19120938 -1.9258754 0.10142709 10 9
-0.19450238 -1.9555689 -0.38199964 1 2
-0.19161126 -1.9230956 0.16908213 14 10
-0.19217102 -1.9219111 0.23715776 15 11
-0.19482377 -1.9415958 -0.23959514 1 4
-0.19163908 -1.9065081 0.30348289 18 12
-0.1870379 -1.8574759 -0.16332985 1 5
-0.19073035 -1.890835 0.36940622 14 13
-0.082267009 -0.8127259 -0.042810816 7 6
-0.19344863 -1.9077775 0.44270366 15 14
-0.18066098 -1.778576 -0.031204903 13 7
-0.19282338 -1.8950208 0.51039118 23 15
-0.19192697 -1.8477762 0.03242657 11 8
-0.19348891 -1.8533702 0.097658902 10 9
-0.19594574 -1.870581 0.16455004 13 10
-0.19308619 -1.8340147 0.22643325 12 11
-0.19632089 -1.861619 -0.2298456 1 4
-0.1944385 -1.8406869 0.29315823 12 12
-0.19676086 -1.8564711 -0.16332985 1 5
-0.19337401 -1.8214805 0.3560496 13 13
-0.086379558 -0.81229913 -0.042810816 7 6
-0.19732258 -1.8525163 0.4301064 13 14
-0.18805867 -1.7597103 -0.030890759 16 7
-0.19554631 -1.8267546 0.49227384 14 15
-0.19508889 -1.7871095 0.031379428 12 8
-0.19622126 -1.7888004 0.094309397 10 9
-0.19876233 -1.8090504 -0.35375988 1 2
-0.19919915 -1.8101162 0.1593207 12 10
-0.19526844 -1.7658943 0.21814615 12 11
-0.20169522 -1.821105 -0.22497083 1 4
-0.19753963 -1.7807438 0.28377217 13 12
-0.20207144 -1.8158121 -0.15984364 1 5
-0.1972542 -1.7697127 0.34612754 12 13
-0.090631478 -0.81183571 -0.042810816 7 6
-0.19879106 -1.7778642 0.41301015 12 14
-0.19303477 -1.7209439 -0.030227568 14 7
-0.1997164 -1.7777114 0.47933289 13 15
-0.19989529 -1.7463291 0.030681333 12 8
-0.19851136 -1.726239 0.091064572 11 9
-0.20823181 -1.8079851 -0.35375988 1 2
-0.20136811 -1.745712 0.15374273 13 10
-0.19879937 -1.7155503 0.21205269 13 11
-0.19978511 -1.7214311 -0.21278389 1 4
-0.20001876 -1.72082 0.27438608 13 12
-0.19835821 -1.7039406 -0.15008219 1 5
-0.19968671 -1.7101554 0.33467901 13 13
-0.094881013 -0.81134999 -0.042810816 7 6
-0.19993657 -1.7071205 0.39681366 13 14
-0.19638456 -1.6742651 -0.029424759 12 7
-0.20285134 -1.7267926 0.46587428 13 15
-0.20309085 -1.6956208 0.029808709 14 8
-0.19986153 -1.663739 0.087819748 12 9
-0.20382318 -1.6892486 0.148862 13 10
-0.20223343 -1.6711663 0.20669043 13 11
-0.20133077 -1.6612777 -0.20547174 1 4
-0.20163761 -1.6589596 0.26468715 13 12
-0.20438825 -1.6791451 -0.14799045 1 5
-0.20335132 -1.6681974 0.32666501 14 13
-0.098986432 -0.81085938 -0.042810816 7 6
-0.20337182 -1.6635313 0.3869158 14 14
-0.20344485 -1.65932 -0.029180422 12 7
-0.20247272 -1.6490086 0.44516876 15 15
-0.20274772 -1.6231372 0.028552137 16 8
-0.20508982 -1.6349255 0.086354338 15 9
-0.20540771 -1.6328446 0.14398128 13 10
-0.20476075 -1.6208485 0.20059694 18 11
-0.20504363 -1.6208128 -0.20059694 1 4
-0.20357697 -1.6069653 0.25655255 15 12
-0.19936737 -1.5693443 -0.13840331 1 5
-0.20341158 -1.5989451 0.31330839 14 13
-0.10323065 -0.81033003 -0.042810816 7 6
-0.20616062 -1.6160498 0.37611815 14 14
-0.20654789 -1.6145943 -0.028412517 14 7
-0.20570365 -1.6057699 0.43378076 14 15
-0.20556234 -1.5784285 0.027784232 17 8
-0.20846796 -1.5942214 0.084260903 14 9
-0.21079986 -1.6098686 -0.3155981 1 2
-0.20670179 -1.5764333 0.13910057 16 10
-0.20573063 -1.5626791 0.19352853 15 11
-0.20626259 -1.5646111 -0.19377227 1 4
-0.20785172 -1.5745432 0.25154665 15 12
-0.20549023 -1.5524776 -0.13700882 1 5
-0.20558979 -1.5511487 0.30414957 14 13
-0.10747213 -0.80977833 -0.042810816 7 6
-0.21025518 -1.5821085 0.36846983 15 14
-0.20865986 -1.5659186 -0.027574802 15 7
-0.20874333 -1.5644581 0.42291033 15 15
-0.20979483 -1.5476069 0.027260659 17 8
-0.2106178 -1.5475905 0.081853449 17 9
-0.21922605 -1.6087428 -0.3155981 1 2
-0.2117206 -1.5516402 0.13700882 16 10
-0.21955332 -1.6048607 -0.25655255 1 3
-0.20798285 -1.5183126 0.18816628 19 11
-0.21013607 -1.5320429 -0.18987246 1 4
-0.21071774 -1.5342932 0.24528927 17 12
-0.21089825 -1.5316428 -0.13526571 1 5
-0.20968668 -1.5208781 0.29842529 15 13
-0.11198379 -0.81118309 -0.04291549 14 6
-0.21053106 -1.5230743 0.35497275 16 14
-0.21191512 -1.5291508 -0.026946515 15 7
-0.21162152 -1.5250734 0.41255757 19 15
-0.21315214 -1.512825 0.026667278 22 8
-0.21228504 -1.5009823 0.079445995 20 9
-0.21718629 -1.5337063 -0.30109662 1 2
-0.21452785 -1.5130298 0.1336969 19 10
-0.2140536 -1.5059031 -0.2409091 1 3
-0.21173434 -1.4877234 0.1845102 23 11
-0.20975362 -1.4719645 -0.18256028 1 4
-0.21233086 -1.4881908 0.23809329 26 12
-0.21722242 -1.5186837 -0.13421984 3 5
-0.21430728 -1.496438 0.29384586 29 13
-0.11622951 -0.81058562 -0.04291549 21 6
-0.21241054 -1.4795139 0.34507492 29 14
-0.21194236 -1.4725997 -0.025969181 26 7
-0.21464404 -1.4895266 0.40324008 37 15
-0.21945781 -1.5024927 -0.40686354 1 0
-0.21817677 -1.4919016 0.026318228 52 8
-0.22188717 -1.5135835 -0.35317314 1 1
-0.21753092 -1.4820653 0.078503944 50 9
-0.2172216 -1.4781611 -0.29041129 4 2
-0.21664651 -1.4724625 0.13021068 60 10
-0.21962975 -1.4891278 -0.23840615 3 3
-0.2169113 -1.4689201 0.18231656 59 11
-0.21803847 -1.4747735 -0.18304777 7 4
-0.21549213 -1.4557933 0.23308739 64 12
-0.21903005 -1.4761382 -0.1305593 10 5
-0.21954308 -1.4778181 0.29041129 61 13
-0.21949437 -1.4757184 -0.078189924 10 6
-0.21871921 -1.468744 0.34282541 63 14
-0.2175834 -1.4576255 -0.025724847 89 7
-0.22072701 -1.4769186 0.40013427 66 15
-0.22385131 -1.4784021 -0.4006519 1 0
-0.22388721 -1.476899 0.026073895 90 8
-0.22512527 -1.481575 -0.34597474 1 1
-0.22618918 -1.4868295 0.078817956 78 9
-0.22288883 -1.4634173 -0.28773996 4 2
-0.22405304 -1.4693384 0.13003637 84 10
-0.22085761 -1.4449979 -0.23152302 5 3
-0.22580048 -1.4756134 0.18329151 81 11
-0.22635861 -1.4775361 -0.18353525 7 4
-0.22550753 -1.4702652 0.23559032 83 12
-0.22433418 -1.4592173 -0.12916481 10 5
-0.22697929 -1.474708 0.2900297 75 13
-0.12623225 -0.81919384 -0.043438848 66 6
-0.23056608 -1.4945421 0.34912404 84 14
-0.22551812 -1.4584423 -0.025759753 84 7
-0.22609259 -1.4604696 0.39599317 76 15
-0.23996687 -1.5306489 -0.41514575 1 0
-0.23223731 -1.4796575 0.026143704 94 8
-0.24378158 -1.5496783 -0.3621712 1 1
-0.23459241 -1.4895709 0.079027303 61 9
-0.23177131 -1.4699874 -0.28926644 4 2
-0.2348499 -1.4878253 0.13177948 51 10
-0.23459414 -1.482844 -0.23778042 1 3
-0.23538691 -1.4861746 0.18475394 58 11
-0.23502435 -1.4822124 -0.18426646 3 4
-0.23753832 -1.4963776 0.23997049 58 12
-0.23760667 -1.4934402 -0.13230242 9 5
-0.23840332 -1.496765 0.2946091 36 13
-0.12989083 -0.81457692 -0.043229505 47 6
-0.24238198 -1.5183312 0.35497275 34 14
-0.23789012 -1.4868604 -0.026283324 50 7
-0.24290264 -1.5164919 0.4115223 32 15
-0.23966123 -1.4764475 0.0261088 57 8
-0.23982024 -1.4725517 0.078189924 38 9
-0.24736273 -1.5171955 -0.29880691 1 2
-0.24520436 -1.5023062 0.13317397 34 10
-0.24299288 -1.4854943 -0.23840615 1 3
-0.24091956 -1.4712089 0.18304777 36 11
-0.24181859 -1.4750847 -0.18353525 5 4
-0.24632986 -1.5009613 0.2409091 38 12
-0.24186602 -1.4705498 -0.13038498 9 5
-0.24528025 -1.4896847 0.29346424 36 13
-0.134479 -0.8158564 -0.043334179 54 6
-0.24652117 -1.4939684 0.34957394 30 14
-0.24273574 -1.4678382 -0.025969181 89 7
-0.24673793 -1.4904225 0.40479302 33 15
-0.25598231 -1.5280521 -0.41514575 1 0
-0.24771917 -1.4771445 0.026143704 90 8
-0.25198284 -1.5009614 -0.35137355 1 1
-0.24918386 -1.4811238 0.078713283 70 9
-0.24813011 -1.4732878 -0.29041129 4 2
-0.25041717 -1.4852843 0.13177948 67 10
-0.24919318 -1.476454 -0.23715468 3 3
-0.24729531 -1.4620981 0.18207282 66 11
-0.24688788 -1.4581405 -0.18158534 8 4
-0.24923369 -1.470437 0.23621608 67 12
-0.25063911 -1.477164 -0.13108224 12 5
-0.25143141 -1.4787027 0.29155618 69 13
-0.25204888 -1.4792098 0.34642464 69 14
-0.24915339 -1.4606773 -0.025864467 99 7
-0.25330266 -1.4834418 0.40324008 61 15
-0.25278848 -1.4619682 -0.39754605 1 0
-0.2578375 -1.48962 0.02638804 90 8
-0.26183447 -1.5111425 -0.35407296 1 1
-0.25565335 -1.4739399 0.078399271 78 9
-0.25625548 -1.4758816 -0.29117453 4 2
-0.25614136 -1.4721755 0.13073361 87 10
-0.25692049 -1.475129 -0.23715468 3 3
-0.25707918 -1.4745167 0.18377897 86 11
-0.25836042 -1.4803385 -0.1845102 5 4
-0.25863102 -1.4788411 0.23778042 91 12
-0.25665224 -1.4660188 -0.13021068 9 5
-0.25891241 -1.4774112 0.29155618 83 13
-0.14183763 -0.80852669 -0.043020159 27 6
-0.25784722 -1.4683182 0.34417513 82 14
-0.25939101 -1.4725822 0.4006519 81 15
-0.33946013 -1.9057181 -0.51867342 0 0
-0.30538908 -1.7092603 -0.40086278 1 1
-0.29027387 -1.6213919 -0.32017753 3 2
-0.36199623 -2.0199814 0.17954083 85 10
-0.36309576 -2.0220504 -0.32538372 6 3
-0.36067051 -2.0065327 0.25031966 92 11
-0.36523905 -2.0299144 -0.25324452 9 4
-0.34034431 -1.8896614 0.30410865 72 12
-0.34621915 -1.9165273 0.37856507 82 13
-0.14571373 -0.80580753 -0.04291549 7 6
-0.34675306 -1.9156616 0.44945222 63 14
-0.32902777 -1.8141228 -0.032182239 9 7
-0.34888369 -1.9216888 0.52333212 79 15
-0.36891434 -2.0080829 0.035637815 4 8
-0.36443055 -1.9797866 -0.46474886 1 1
-0.37023869 -2.0093713 0.10707937 2 9
-0.36356765 -1.9712355 -0.38963199 4 2
-0.37582335 -2.0356915 0.18110962 93 10
-0.37475598 -2.025949 -0.32632235 7 3
-0.37514734 -2.0260878 0.2530008 100 11
-0.37586269 -2.0279741 -0.25324452 9 4
-0.36320531 -1.9577739 0.3153719 74 12
-0.36235446 -1.9475005 0.38505259 83 13
-0.14993085 -0.80503362 -0.04291549 7 6
-0.36856446 -1.9770391 0.46429899 12 14
-0.34182626 -1.8300664 -0.032496382 9 7
-0.36710647 -1.9635115 0.53523779 94 15
-0.37446228 -1.9817857 -0.54041415 0 0
-0.38276818 -2.0238075 0.035951961 4 8
-0.37733126 -1.9912542 -0.46789822 1 1
-0.38373226 -2.0231035 0.10791675 2 9
-0.37205335 -1.9596608 -0.38772389 4 2
-0.38833666 -2.0434825 0.18198119 92 10
-0.38757548 -2.0356019 -0.32819954 7 3
-0.3853792 -2.0221457 0.25275704 100 11
-0.38759166 -2.0318279 -0.25397575 9 4
-0.37530369 -1.965547 0.31693625 76 12
-0.37402323 -1.9532894 0.38657904 85 13
-0.14662473 -0.76500636 -0.040822048 8 6
-0.378544 -1.9731683 0.46384907 74 14
-0.34762934 -1.8086141 -0.032147333 11 7
-0.37811232 -1.9653566 0.53627306 98 15
-0.38778272 -1.9949689 -0.54455531 0 0
-0.39641461 -2.0374789 0.036231197 4 8
-0.38588807 -1.9796873 -0.46564871 0 1
-0.39470246 -2.0230269 0.10802142 3 9
-0.38343766 -1.9634664 -0.38886875 4 2
-0.3997955 -2.0453322 0.1823298 95 10
-0.39898759 -2.0374217 -0.32882527 7 3
-0.39748892 -2.0278921 0.253732 100 11
-0.39822501 -2.0297706 -0.25397575 9 4
-0.3844482 -1.9577398 0.31599763 81 12
-0.38500422 -1.9551568 0.3873423 85 13
-0.15835284 -0.80341941 -0.04291549 7 6
-0.38962448 -1.974983 0.46474886 82 14
-0.36329806 -1.8381571 -0.03270581 10 7
-0.39064696 -1.9747206 0.53937894 96 15
-0.3959516 -1.9815446 -0.54144943 0 0
-0.40276349 -2.0138056 0.035847243 4 8
-0.40007672 -1.9967476 -0.47014773 1 1
-0.40489665 -2.0189741 0.10791675 2 9
-0.39487228 -1.9672066 -0.39001361 4 2
-0.40892956 -2.0353973 0.18163256 93 10
-0.41042969 -2.0391779 -0.32945102 7 3
-0.41006166 -2.0355132 0.25495067 100 11
-0.41120192 -2.0393333 -0.25543818 9 4
-0.39508423 -1.9576365 0.31631052 84 12
-0.39796168 -1.966584 0.39001361 87 13
-0.16255727 -0.80257922 -0.04291549 7 6
-0.39763701 -1.9614563 0.46204948 76 14
-0.37212148 -1.8323102 -0.032636002 9 7
-0.3979027 -1.957503 0.53523779 98 15
-0.40321392 -1.9643052 -0.53730839 0 0
-0.41772908 -2.033216 0.036231197 3 8
-0.41131189 -1.9984428 -0.47104752 1 1
-0.41949216 -2.0363884 0.10896347 2 9
-0.40358135 -1.9574207 -0.38848713 4 2
-0.41958109 -2.0332284 0.18163256 88 10
-0.42070124 -2.0350664 -0.32913816 7 3
-0.42192045 -2.03917 0.2556819 94 11
-0.42267889 -2.0410402 -0.25592566 9 4
-0.40653181 -1.961344 0.31724915 79 12
-0.40585646 -1.9529401 0.38772389 87 13
-0.16675736 -0.8017171 -0.04291549 7 6
-0.41187337 -1.9784261 0.4665485 45 14
-0.38252684 -1.8342518 -0.03270581 10 7
-0.40854147 -1.957284 0.53575546 100 15
-0.42836902 -2.0310009 0.036231197 3 8
-0.42136726 -1.9943551 -0.47059759 1 1
-0.4276695 -2.0224397 0.10833544 1 9
-0.4166702 -1.9687257 -0.39115849 3 2
-0.43187284 -2.0388002 0.1823298 95 10
-0.43053085 -2.0289712 -0.32851243 6 3
-0.43052983 -2.0272238 0.2544632 97 11
-0.43418565 -2.0426824 -0.25641313 9 4
-0.41885078 -1.9688491 0.31881347 84 12
-0.41607648 -1.9507881 0.38772389 81 13
-0.16594929 -0.777394 -0.041659426 7 6
-0.42344823 -1.9819597 0.46789822 45 14
-0.40216935 -1.8791538 -0.033543523 11 7
-0.41918859 -1.9570069 0.53627306 98 15
-0.42947701 -1.9864103 -0.54455531 0 0
-0.4457643 -2.0600014 0.036789671 1 8
-0.43386778 -2.0016439 -0.4728471 1 1
-0.4391 -2.0240765 0.10854478 2 9
-0.42738929 -1.9684355 -0.39154008 4 2
-0.44338804 -2.040405 0.18267845 95 10
-0.44450974 -2.0421302 -0.33101538 6 3
-0.44113848 -2.0249417 0.2544632 100 11
-0.44360629 -2.0345626 -0.2556819 8 4
-0.42957512 -1.968559 0.31912637 81 12
-0.42838278 -1.9581724 0.38963199 83 13
-0.1751436 -0.79992694 -0.04291549 7 6
-0.43340284 -1.9778117 0.46744829 82 14
-0.41114587 -1.8731159 -0.033473715 9 7
-0.43274581 -1.96988 0.54041415 98 15
-0.44990712 -2.0293999 -0.55697864 0 0
-0.45654413 -2.0576391 0.036789671 1 8
-0.44222856 -1.9898332 -0.47059759 1 1
-0.45229396 -2.0334473 0.10917282 2 9
-0.43726337 -1.9642546 -0.39115849 3 2
-0.4557986 -2.0458343 0.18337567 88 10
-0.45648679 -2.0455592 -0.331954 6 3
-0.45433098 -2.0342286 0.25592566 97 11
-0.45685139 -2.0438354 -0.25714433 8 4
-0.43901411 -1.9624273 0.31850061 81 12
-0.43991873 -1.9616497 0.39077684 81 13
-0.17932951 -0.79899889 -0.04291549 7 6
-0.44118991 -1.964107 0.46474886 74 14
-0.41655841 -1.8514282 -0.033124667 10 7
-0.4447515 -1.9751261 0.54248476 94 15
-0.45539063 -2.00441 -0.55076694 0 0
-0.4708586 -2.0708199 0.037068911 1 8
-0.45264104 -1.9874904 -0.47059759 1 1
-0.46204689 -2.0271566 0.10896347 1 9
-0.44535914 -1.9523678 -0.3892504 3 2
-0.46650434 -2.0434196 0.18337567 88 10
-0.46807173 -2.0469921 -0.33257973 5 3
-0.46674731 -2.039562 0.25690058 97 11
-0.46754643 -2.0414155 -0.25714433 8 4
-0.44884181 -1.9581763 0.31818774 84 12
-0.45150256 -1.9650596 0.3919217 85 13
-0.18351072 -0.79804897 -0.04291549 7 6
-0.45365319 -1.9712656 0.46699843 77 14
-0.42714489 -1.8531189 -0.033194479 9 7
-0.45291594 -1.9633583 0.53989661 92 15
-0.46675521 -2.0057614 -0.55180228 0 0
-0.47988069 -2.0605357 0.036929294 1 8
-0.46756071 -2.0060506 -0.47554654 2 1
-0.47628734 -2.0402691 0.10980085 2 9
-0.45870188 -1.9633915 -0.3919217 3 2
-0.47628984 -2.0370691 0.18302706 88 10
-0.47932664 -2.0484433 -0.33320546 5 3
-0.47877872 -2.0428882 0.25763181 94 11
-0.47958881 -2.0447376 -0.25787556 9 4
-0.45999146 -1.9596455 0.31881347 76 12
-0.45953724 -1.9531133 0.39001361 79 13
-0.1876868 -0.79707718 -0.04291549 7 6
-0.46262732 -1.9631728 0.46564871 77 14
-0.44019082 -1.8665037 -0.033473715 9 7
-0.46240386 -1.9591603 0.53937894 86 15
-0.47725075 -2.0032899 -0.55180228 0 0
-0.49066284 -2.0579948 0.036929294 1 8
-0.47489205 -1.9903064 -0.47239724 1 1
-0.49124655 -2.0572586 0.11084756 1 9
-0.4731968 -1.9801396 -0.39573789 3 2
-0.48973194 -2.0461729 0.18407291 90 10
-0.48636469 -2.0305374 -0.33070248 5 3
-0.48772442 -2.0346477 0.25690058 88 11
-0.4917841 -2.0500052 -0.25885051 9 4
-0.47393748 -1.9725759 0.32131645 84 12
-0.47079492 -1.9564885 0.39115849 85 13
-0.19171868 -0.79611701 -0.04291549 7 6
-0.47529745 -1.9721731 0.46834809 79 14
-0.45183462 -1.8719488 -0.033613335 9 7
-0.47401628 -1.962346 0.54093182 82 15
-0.49881446 -2.0477729 -0.56474322 0 0
-0.50580913 -2.0749133 0.037278343 1 8
-0.48530683 -1.9877925 -0.47239724 1 1
-0.49253052 -2.0158546 0.10875413 1 9
-0.48262572 -1.9738206 -0.39497465 3 2
-0.50102955 -2.047539 0.18442155 93 10
-0.49981081 -2.0394747 -0.33257973 5 3
-0.4974255 -2.0282102 0.25641313 100 11
-0.49919918 -2.0339069 -0.25714433 8 4
-0.48344436 -1.9682333 0.32100356 79 12
-0.48244029 -1.9597156 0.39230329 87 13
-0.19588444 -0.79510224 -0.04291549 7 6
-0.48468426 -1.9658734 0.46744829 79 14
-0.45731542 -1.852085 -0.033299193 9 7
-0.48521152 -1.963588 0.54196709 77 15
-0.50392538 -2.0226383 -0.55853152 0 0
-0.50408846 -2.0217886 0.036370814 1 8
-0.49381956 -1.9776614 -0.47059759 1 1
-0.5079208 -2.032625 0.10980085 2 9
-0.49104893 -1.9636481 -0.39344814 3 2
-0.51271075 -2.048753 0.18477017 92 10
-0.51048267 -2.0368297 -0.33257973 5 3
-0.509004 -2.0294287 0.25690058 100 11
-0.51225799 -2.0408921 -0.25836304 9 4
-0.49278098 -1.9618434 0.32037783 79 12
-0.49557042 -1.9685858 0.39459303 87 13
-0.20004492 -0.79406571 -0.04291549 7 6
-0.49401793 -1.9595295 0.4665485 76 14
-0.47043332 -1.8632369 -0.033543523 10 7
-0.49879894 -1.9741315 0.54559058 71 15
-0.52023113 -2.0424371 -0.56474322 0 0
-0.52257013 -2.0501251 0.036929294 1 8
-0.50754184 -1.9882662 -0.47374693 1 1
-0.52646577 -2.0608995 0.1114756 1 9
-0.5018099 -1.9629523 -0.39382979 3 2
-0.52145571 -2.0383191 0.18407291 95 10
-0.52800381 -2.0609188 -0.33695987 5 3
-0.52307415 -2.0401962 0.25860679 94 11
-0.52293712 -2.038182 -0.25836304 9 4
-0.50402868 -1.9630629 0.32100356 81 12
-0.50733888 -1.9716681 0.39573789 85 13
-0.20419982 -0.79300743 -0.04291549 7 6
-0.50475752 -1.9588029 0.46699843 73 14
-0.48118237 -1.8646207 -0.033613335 9 7
-0.50719625 -1.9640108 0.54352003 67 15
-0.51631892 -1.9835986 -0.54921407 0 0
-0.53833807 -2.0667124 0.037278343 1 8
-0.52089643 -1.9968952 -0.47644633 1 1
-0.53624052 -2.0542498 0.11126626 1 9
-0.51803541 -1.9830918 -0.39840919 3 2
-0.53413665 -2.0432718 0.18477017 88 10
-0.53628623 -2.0485711 -0.33539551 5 3
-0.53676778 -2.0489509 0.26006919 92 11
-0.53360164 -2.0354161 -0.25836304 9 4
-0.51530296 -1.9642184 0.32162929 79 12
-0.51565856 -1.9613895 0.39421138 83 13
-0.2083492 -0.79192734 -0.04291549 7 6
-0.52195305 -1.9825165 0.47329703 77 14
-0.48991913 -1.8582084 -0.033543523 9 7
-0.51895136 -1.9669321 0.54507297 56 15
-0.53563344 -2.0144734 -0.55853152 0 0
-0.55429363 -2.0831897 0.037627388 1 8
-0.53034163 -1.9903744 -0.47554654 2 1
-0.55625153 -2.0861509 0.11315035 1 9
-0.53347296 -1.9993212 -0.40222538 3 2
-0.54636985 -2.0462217 0.18529311 99 10
-0.54292309 -2.0304685 -0.33289257 4 3
-0.54440987 -2.0346067 0.25860679 94 11
-0.5493862 -2.0517697 -0.26080042 9 4
-0.52762568 -1.9691257 0.32288077 81 12
-0.52643049 -1.9605589 0.39459303 87 13
-0.20005433 -0.7445333 -0.040403362 8 6
-0.53182012 -1.9778745 0.4728471 80 14
-0.50276148 -1.8672034 -0.033752955 9 7
-0.53024811 -1.9679185 0.54610825 53 15
-0.5481984 -2.019099 -0.56060207 0 0
-0.54126751 -1.9894507 -0.47599643 2 1
-0.56296939 -2.0677929 0.11231297 1 9
-0.53825742 -1.9756643 -0.3980276 3 2
-0.55864859 -2.0490994 0.18581605 95 10
-0.55458748 -2.031409 -0.33351833 4 3
-0.55400932 -2.0278983 0.25811929 94 11
-0.55593395 -2.0335462 -0.25885051 10 4
-0.54053473 -1.9758629 0.32444513 84 12
-0.53980285 -1.9691362 0.39688274 87 13
-0.21663074 -0.78970218 -0.04291549 7 6
-0.53907382 -1.9637876 0.47014773 80 14
-0.51359111 -1.8684016 -0.033822764 10 7
-0.54259431 -1.9725658 0.54817873 53 15
-0.56392229 -2.0348175 -0.56577843 0 0
-0.55219811 -1.988467 -0.47644633 1 1
-0.57378888 -2.0648167 0.11231297 1 9
-0.54859465 -1.9728189 -0.3980276 2 2
-0.57043803 -2.0499854 0.18616466 95 10
-0.57157898 -2.0513122 -0.33727276 4 3
-0.56835175 -2.0383554 0.25982547 88 11
-0.56764072 -2.0344317 -0.25933796 9 4
-0.54821688 -1.9634926 0.32288077 81 12
-0.55275059 -1.9757361 0.39879084 83 13
-0.22076266 -0.78855705 -0.04291549 7 6
-0.55040002 -1.964691 0.47104752 77 14
-0.51634556 -1.8406569 -0.033369001 9 7
-0.5550037 -1.9771376 0.55024934 50 15
-0.56720936 -2.0058115 -0.55853152 0 0
-0.59456927 -2.1011641 0.038116053 1 8
-0.5626021 -1.9855484 -0.47644633 2 1
-0.58677143 -2.0694702 0.11273166 1 9
-0.56213176 -1.9812515 -0.40031728 3 2
-0.58007562 -2.0431373 0.18581605 97 10
-0.58231157 -2.0482912 -0.33727276 4 3
-0.58227581 -2.0468073 0.2612879 88 11
-0.58154631 -2.0428872 -0.26080042 9 4
-0.55740762 -1.9567956 0.32225505 81 12
-0.5652433 -1.980366 0.40031728 85 13
-0.22488841 -0.78739035 -0.04291549 7 6
-0.56282163 -1.969277 0.4728471 80 14
-0.52542603 -1.8360057 -0.033334095 9 7
-0.5642845 -1.9704902 0.54921407 50 15
-0.57770377 -2.0028143 -0.55853152 0 0
-0.57948339 -2.0050411 -0.48184517 2 1
-0.60092837 -2.0778813 0.1133597 1 9
-0.57577252 -1.9895965 -0.40260699 3 2
-0.59187365 -2.0438995 0.18616466 97 10
-0.59192824 -2.0414197 -0.33664703 4 3
-0.59298515 -2.0437303 0.2612879 88 11
-0.58946711 -2.0302823 -0.25958171 9 4
-0.57205474 -1.9690259 0.32475799 81 12
-0.57340968 -1.9698395 0.39879084 85 13
-0.22900812 -0.78620201 -0.04291549 7 6
-0.57530636 -1.9737867 0.47464675 79 14
-0.54399586 -1.8639432 -0.033892576 10 7
-0.57459426 -1.9675087 0.54921407 49 15
-0.59254354 -2.0145886 -0.56267262 0 0
-0.58556688 -1.9870253 -0.47824594 2 1
-0.59485257 -2.0172353 0.11021954 1 9
-0.5906269 -2.0016184 -0.40565994 3 2
-0.60256743 -2.0407722 0.18616466 88 10
-0.6009289 -2.0326095 -0.33570841 3 3
-0.60142529 -2.0329835 0.26031294 88 11
-0.60797811 -2.0538161 -0.26299405 11 4
-0.58572286 -1.9773675 0.32663518 79 12
-0.58483309 -1.9705744 0.39955404 85 13
-0.23312153 -0.78499216 -0.04291549 7 6
-0.58896363 -1.9819555 0.47734615 82 14
-0.54690456 -1.8380694 -0.033473715 9 7
-0.58433676 -1.9626216 0.5486964 46 15
-0.61196065 -2.0410662 -0.57095486 0 0
-0.59315979 -1.9746002 -0.47599643 2 1
-0.62610412 -2.0829511 0.11398773 1 9
-0.5965755 -1.983458 -0.40260699 3 2
-0.6189869 -2.0566678 0.18790779 93 10
-0.61441296 -2.038892 -0.33727276 3 3
-0.61320788 -2.0336077 0.26080042 86 11
-0.61356282 -2.0335007 -0.26080042 11 4
-0.59606808 -1.9742737 0.32663518 81 12
-0.59571123 -1.9693645 0.39993569 79 13
-0.23722848 -0.78376079 -0.04291549 7 6
-0.59481406 -1.9639239 0.47374693 80 14
-0.556521 -1.8351808 -0.033473715 9 7
-0.59797072 -1.9706268 0.55180228 44 15
-0.63167125 -2.0673947 -0.57923704 0 0
-0.60634243 -1.9807844 -0.47824594 2 1
-0.63700193 -2.0796442 0.11398773 1 9
-0.60465145 -1.9727987 -0.40108052 3 2
-0.63033098 -2.0553033 0.18808208 99 10
-0.62218088 -2.0262053 -0.33570841 3 3
-0.62501329 -2.0341642 0.2612879 88 11
-0.62711835 -2.0397472 -0.2620191 11 4
-0.60872066 -1.9786779 0.3278867 81 12
-0.60890591 -1.9755991 0.40184379 83 13
-0.24132901 -0.78250796 -0.04291549 7 6
-0.6073873 -1.9682308 0.47554654 80 14
-0.56848371 -1.839884 -0.033613335 9 7
-0.6099925 -1.9730054 0.5533551 41 15
-0.6264109 -2.0124114 -0.56474322 0 0
-0.62424779 -2.0017672 -0.48409468 2 1
-0.65621096 -2.1029725 0.11545313 1 9
-0.61906838 -1.9827242 -0.40375188 3 2
-0.6393016 -2.0462697 0.18755916 93 10
-0.64103752 -2.0493135 -0.34008855 3 3
-0.63862038 -2.0403359 0.26250657 82 11
-0.63838321 -2.0383301 -0.26226285 12 4
-0.61730027 -1.9698087 0.32694808 84 12
-0.62159431 -1.9798762 0.40337023 83 13
-0.24542283 -0.78123361 -0.04291549 7 6
-0.62119091 -1.9761781 0.47824594 80 14
-0.57150596 -1.8159001 -0.033229381 9 7
-0.61741328 -1.9605716 0.55076694 37 15
-0.65328586 -2.0606666 -0.57923704 0 0
-0.69050771 -2.1767561 0.039861299 1 8
-0.64179868 -2.0207591 -0.48949349 3 1
-0.66116405 -2.0804734 0.11440641 1 9
-0.62884659 -1.9775846 -0.40337023 3 2
-0.65121502 -2.0466917 0.18790779 95 10
-0.64576298 -2.0271072 -0.33695987 3 3
-0.6517064 -2.0445297 0.26348156 90 11
-0.65387255 -2.0500896 -0.26421279 12 4
-0.62940747 -1.972195 0.3278867 81 12
-0.6307565 -1.9728545 0.40260699 83 13
-0.24951001 -0.77993792 -0.04291549 7 6
-0.63390607 -1.9803222 0.48004553 80 14
-0.57429272 -1.7919357 -0.03284543 9 7
-0.62531072 -1.9499537 0.5486964 34 15
-0.65457135 -2.0278025 -0.57095486 0 0
-0.64722425 -2.0026503 -0.48589426 2 1
-0.64282072 -1.9854718 -0.40565994 3 2
-0.66315061 -2.0470445 0.1882564 84 10
-0.65966964 -2.0350876 -0.33883709 2 3
-0.6614337 -2.0393164 0.2632378 86 11
-0.66214544 -2.0390854 -0.2632378 4 4
-0.64216715 -1.976387 0.32913816 81 12
-0.64073378 -1.9696366 0.40260699 85 13
-0.25359032 -0.77862072 -0.04291549 7 6
-0.64426613 -1.976976 0.48004553 80 14
-0.58211535 -1.7852037 -0.032775622 11 7
-0.63756925 -1.9541099 0.55076694 28 15
-0.66482669 -2.0244634 -0.57095486 0 0
-0.65613508 -1.9956464 -0.48499447 2 1
-0.59512579 -1.8079578 0.099752344 1 9
-0.65900362 -2.0008399 -0.40947613 2 2
-0.67112494 -2.0340574 0.26299405 27 11
-0.65588176 -1.9843651 0.33101538 72 12
-0.65501219 -1.9794153 0.40527833 81 13
-0.24999058 -0.75457627 -0.041659426 7 6
-0.65426427 -1.9736898 0.48004553 79 14
-0.59303206 -1.7879285 -0.032880332 12 7
-0.64745182 -1.9508579 0.55076694 28 15
-0.69097763 -2.0687134 -0.58441341 0 0
-0.66472024 -1.9866393 -0.48364475 0 1
-0.60404855 -1.7990481 0.2330142 1 11
-0.66536748 -1.9759585 0.40527833 27 13
-0.26159453 -0.77596819 -0.04291549 7 6
-0.66458958 -1.970237 0.48004553 77 14
-0.59982741 -1.77722 -0.032740716 12 7
-0.65827549 -1.9492714 0.55128461 25 15
-0.70902145 -2.0779812 0.19209124 1 10
-0.72071707 -2.1074429 -0.27347484 1 4
-0.60850573 -1.7773002 0.2975384 1 12
-0.58565402 -1.7086095 0.35108855 7 13
-0.265789 -0.7745415 -0.04291549 7 6
-0.61983007 -1.804208 -0.033299193 12 7
-0.66692841 -1.9402003 0.54973167 22 15
-0.72194314 -2.0813229 0.11545313 1 9
-0.7091431 -2.0421185 0.18912795 52 10
-0.72649771 -2.0897396 -0.35041323 0 3
-0.71087211 -2.0436432 0.26567519 7 11
-0.7171011 -2.0603924 -0.26786885 12 4
-0.68310905 -1.9605203 0.32882527 1 12
-0.61234862 -1.7554661 0.36139226 1 13
-0.28314543 -0.81080383 -0.045008924 5 6
-0.64278126 -1.8385811 -0.033997286 8 7
-0.67422682 -1.927446 0.54714346 20 15
-0.73984092 -2.09622 0.11649985 1 9
-0.71060723 -2.0122721 -0.41481876 1 2
-0.72615546 -2.0551589 0.19069678 78 10
-0.72461861 -2.0485325 -0.34415585 4 3
-0.73022652 -2.0620959 -0.26860005 12 4
-0.70360696 -1.9847236 0.33351833 38 12
-0.70654422 -1.9908013 0.41062099 8 13
-0.27415466 -0.77162009 -0.04291549 7 6
-0.66478211 -1.8689896 -0.034625575 8 7
-0.68658841 -1.9292302 0.5486964 19 15
-0.71638227 -1.9996779 -0.49039328 2 1
-0.73291063 -2.0435684 0.11377838 1 9
-0.71415222 -1.9901706 -0.41100258 3 2
-0.74058783 -2.0627081 0.19174263 88 10
-0.73194945 -2.0375307 -0.34290439 4 3
-0.73120695 -2.0343471 0.26543146 90 11
-0.73393315 -2.039695 -0.26616266 12 4
-0.71932012 -1.9979887 0.33633414 74 12
-0.76773077 -2.1312876 -0.19819216 1 5
-0.71493328 -1.9836307 0.40985772 62 13
-0.27792218 -0.77027112 -0.04291549 7 6
-0.67390782 -1.8657185 -0.034625575 8 7
-0.69929117 -1.9349362 0.55128461 18 15
-0.72849369 -2.0015202 -0.491743 2 1
-0.75008231 -2.0585983 0.11482509 1 9
-0.72152638 -1.9791529 -0.40947613 3 2
-0.75238425 -2.0626767 0.19209124 92 10
-0.74767101 -2.0486453 -0.34540737 4 3
-0.7462604 -2.0436726 0.26713762 97 11
-0.74765509 -2.0452762 -0.26738134 12 4
-0.72331661 -1.9776257 0.33351833 79 12
-0.75796717 -2.0712428 -0.1929628 1 5
-0.73103923 -1.9965789 0.41329232 76 13
-0.28181735 -0.76885456 -0.04291549 7 6
-0.65554827 -1.7875024 0.43955436 1 14
-0.67507607 -1.8397561 -0.034206714 8 7
-0.70374936 -1.9168638 0.54714346 15 15
-0.74301994 -2.0086446 -0.49444243 3 1
-0.75910574 -2.0510292 0.11461575 1 9
-0.73017102 -1.9717934 -0.40871289 3 2
-0.76142997 -2.0551057 0.19174263 93 10
-0.76525682 -2.0632231 -0.34853604 4 3
-0.76040405 -2.0490425 0.26835632 92 11
-0.76145256 -2.0507708 -0.26860005 12 4
-0.73469293 -1.9776429 0.33414406 74 12
-0.76324576 -2.0523067 -0.19156833 2 5
-0.73942912 -1.987204 0.41214746 58 13
-0.2857053 -0.76741827 -0.04291549 7 6
-0.6441803 -1.7293764 0.42605728 1 14
-0.6902892 -1.8511856 -0.034485955 8 7
-0.70769894 -1.896863 0.54248476 11 15
-0.76175481 -2.0266161 -0.49984124 3 1
-0.78108335 -2.0769374 0.11629051 1 9
-0.74739909 -1.986318 -0.41252908 3 2
-0.774988 -2.0585494 0.19243988 88 10
-0.77326256 -2.0517941 -0.34728456 4 3
-0.7739237 -2.0524626 0.26933128 97 11
-0.77568352 -2.056042 -0.26981872 13 4
-0.74782819 -1.9811612 0.33539551 74 12
-0.78243232 -2.0706475 -0.19366007 1 5
-0.74843544 -1.9796323 0.41138422 37 13
-0.28971958 -0.76591182 -0.04291549 7 6
-0.69997257 -1.8475459 -0.034485955 8 7
-0.71693623 -1.891325 0.54196709 7 15
-0.76540363 -2.0043948 -0.49534222 1 1
-0.78054202 -2.0429678 0.11461575 1 9
-0.75778925 -1.9823774 -0.41252908 3 2
-0.78717941 -2.0581851 0.1927885 90 10
-0.78258264 -2.0440278 -0.34665883 4 3
-0.78039944 -2.0372598 0.26786885 97 11
-0.78856957 -2.057513 -0.27054995 12 4
-0.76243466 -1.9882851 0.33727276 74 12
-0.79754758 -2.0776825 -0.19470593 1 5
-0.75175142 -1.9573591 0.40756804 9 13
-0.29372582 -0.76438439 -0.04291549 7 6
-0.71538252 -1.8587855 -0.034765195 8 7
-0.82508165 -2.1293914 0.039861299 1 8
-0.77800232 -2.0058103 -0.49669194 0 1
-0.80857033 -2.0835402 0.11712788 1 9
-0.76815856 -1.9783825 -0.41252908 3 2
-0.80227387 -2.0651786 0.19383438 93 10
-0.80329782 -2.0656772 -0.35103899 4 3
-0.79393476 -2.0405457 0.2688438 97 11
-0.79717129 -2.0478065 -0.26981872 11 4
-0.7764194 -1.993469 0.33883709 72 12
-0.81131011 -2.0809033 -0.19540317 1 5
-0.74700695 -1.9149866 0.39955404 1 13
-0.29772413 -0.76283598 -0.04291549 7 6
-0.7192812 -1.8401146 -0.034485955 8 7
-0.81420583 -2.0669823 -0.51288843 0 1
-0.81360984 -2.0644126 0.11629051 1 9
-0.77850664 -1.9743334 -0.41252908 3 2
-0.81453872 -2.064656 0.19418299 90 10
-0.81120008 -2.0540934 -0.3497875 3 3
-0.80752605 -2.0437455 0.26981872 97 11
-0.81007206 -2.0491426 -0.27054995 12 4
-0.78539336 -1.9857028 0.33821136 72 12
-0.82219464 -2.0766268 -0.19540317 1 5
-0.75702381 -1.9110489 0.39955404 1 13
-0.30171418 -0.76126665 -0.04291549 7 6
-0.72447944 -1.8251716 -0.034276526 7 7
-0.83776468 -2.0935016 0.11817461 1 9
-0.79321188 -1.9811655 -0.41481876 3 2
-0.82830131 -2.0677607 0.19488023 88 10
-0.82929611 -2.0681524 -0.35291618 3 3
-0.82043344 -2.0450163 0.27054995 92 11
-0.82152963 -2.0467155 -0.27079371 11 4
-0.79430741 -1.9778969 0.3375856 74 12
-0.81224841 -2.0205321 -0.19052245 1 5
-0.30569601 -0.75967646 -0.04291549 7 6
-0.73851097 -1.8324816 -0.034485955 8 7
-0.63718647 -1.5802675 0.4565568 1 15
-0.83969396 -2.0668819 0.11691854 1 9
-0.80800968 -1.9878976 -0.41710848 1 2
-0.83611465 -2.0560131 0.19418299 92 10
-0.8319208 -2.0436566 -0.34947464 3 3
-0.83562225 -2.0517235 0.27201241 92 11
-0.83972579 -2.0607693 -0.27323109 11 4
-0.84389549 -2.067903 -0.19540317 1 5
-0.30891418 -0.75621641 -0.042810816 7 6
-0.75566757 -1.8470975 -0.034835003 7 7
-0.62349766 -1.5232733 0.44102767 13 15
-0.85659564 -2.0772281 0.1177559 1 9
-0.85599095 -2.0737069 0.19627473 77 10
-0.85126323 -2.0581787 -0.27347484 7 4
-0.85318643 -2.0597746 -0.19505455 1 5
-0.31286943 -0.7545886 -0.042810816 7 6
-0.77453071 -1.8652773 -0.03525386 8 7
-0.6285004 -1.5128517 0.43895712 33 15
-0.88905048 -2.1243024 0.12068672 1 9
-0.87785703 -2.08834 -0.19819216 1 5
-0.31681618 -0.75294012 -0.042810816 7 6
-0.77807462 -1.8464544 -0.034974623 8 7
-0.63341129 -1.5024195 0.43688658 46 15
-0.30506933 -0.71453398 -0.040717378 8 6
-0.74685144 -1.7467438 -0.033159573 3 7
-0.64202887 -1.5008587 0.43740419 52 15
-0.91382682 -2.1157804 0.28298062 1 11
-0.86148834 -1.9926904 0.34384301 34 12
-0.81667757 -1.8863274 0.39955404 1 13
-0.3246834 -0.74958116 -0.042810816 7 6
-0.60956436 -1.4052547 -0.026737086 1 7
-0.63757324 -1.4691218 0.429122 55 15
-0.87550217 -2.0020409 -0.42474085 3 2
-0.8960371 -2.0480247 0.19557749 1 10
-0.92713076 -2.1170809 -0.36605671 0 3
-0.90577304 -2.0673292 0.27713093 44 11
-0.87508374 -1.9953884 0.34509447 63 12
-0.82654321 -1.8820254 0.39955404 1 13
-0.32860374 -0.74787086 -0.042810816 7 6
-0.68776613 -1.5645489 0.39456415 1 14
-0.60483336 -1.3745886 -0.026213516 5 7
-0.64603502 -1.4675316 0.42963964 70 15
-0.88358498 -1.9920452 -0.42359596 3 2
-0.91482979 -2.0615158 0.19732061 56 10
-0.91174096 -2.0526226 -0.35573202 5 3
-0.91658521 -2.0625582 0.27713093 82 11
-0.91775161 -2.0642121 -0.27737463 7 4
-0.89274484 -2.0070231 0.34791031 79 12
-0.83638597 -1.877672 0.39955404 1 13
-0.33251503 -0.74614006 -0.042810816 7 6
-0.68325186 -1.5324488 0.38736573 1 14
-0.62261653 -1.3951422 -0.026667278 2 7
-0.65292257 -1.4623648 0.429122 25 15
-0.92797267 -2.0638697 0.11859328 2 9
-0.90205735 -2.0052958 -0.42741215 3 2
-0.92888188 -2.0639653 0.19801784 78 10
-0.93058932 -2.0658317 -0.3588607 5 3
-0.92329383 -2.048682 0.27591223 94 11
-0.9277311 -2.057569 -0.27713093 9 4
-0.89918005 -1.993318 0.34634593 74 12
-0.93468249 -2.0700924 -0.19871511 3 5
-0.31996652 -0.70798838 -0.040717378 8 6
-0.6760118 -1.4951127 0.37881759 4 14
-0.64310491 -1.4210119 -0.027225753 1 7
-0.92882335 -2.0371752 0.11733723 3 9
-0.91254449 -2.0005453 -0.42741215 3 2
-0.94794786 -2.077199 0.19976096 84 10
-0.94595581 -2.0718765 -0.36073789 5 3
-0.94060886 -2.0582635 0.27786213 100 11
-0.94096833 -2.0580993 -0.27786213 8 4
-0.90713954 -1.9831936 0.34540737 76 12
-0.9368571 -2.0472178 -0.19697197 4 5
-0.34031028 -0.74261713 -0.042810816 7 6
-0.68707955 -1.4986383 0.38061717 6 14
-0.7003113 -1.5267956 -0.029320043 1 7
-0.95085096 -2.057831 0.11880264 4 9
-0.92265856 -1.9959009 -0.42741215 3 2
-0.95630103 -2.0667822 0.19923802 75 10
-0.9650895 -2.0848215 -0.36386663 5 3
-0.95435154 -2.0606813 0.27883708 92 11
-0.95638019 -2.0641167 -0.27932456 8 4
-0.91917324 -1.9820006 0.3460331 76 12
-0.95007926 -2.0477066 -0.19749491 6 5
-0.34406456 -0.7408852 -0.042810816 7 6
-0.69547701 -1.4969088 0.3810671 6 14
-0.86344635 -1.8567411 -0.035742529 3 7
-0.68370736 -1.4695624 0.43429837 7 15
-0.9692381 -2.069102 0.11974468 6 9
-0.93059689 -1.9857094 -0.42626733 3 2
-0.96590376 -2.0601118 0.19906372 77 10
-0.96676093 -2.0600688 -0.36042506 6 3
-0.97440803 -2.075422 0.28151822 100 11
-0.97730213 -2.0806425 -0.28224945 7 4
-0.93171346 -1.9826864 0.34697169 72 12
-0.95824367 -2.0372949 -0.19697197 6 5
-0.34793922 -0.73907346 -0.042810816 7 6
-0.71742135 -1.5232173 0.38871542 4 14
-0.86718786 -1.8395332 -0.035498194 4 7
-0.68974459 -1.4624676 0.43326309 73 15
-0.9706347 -2.0441525 0.11859328 8 9
-0.94772029 -1.9949962 -0.42932025 4 2
-0.98180848 -2.0658231 0.20010957 77 10
-0.98347384 -2.0674655 -0.36261514 6 3
-0.98184919 -2.063122 0.28054324 94 11
-0.98988986 -2.0790813 -0.2827369 7 4
-0.94887823 -1.9920479 0.34947464 79 12
-0.97747248 -2.0502343 -0.19871511 6 5
-0.35180414 -0.73724151 -0.042810816 7 6
-0.72958475 -1.5282332 0.39096493 2 14
-0.87163454 -1.8241414 -0.035288766 6 7
-0.70072532 -1.465808 0.43533364 77 15
-0.99518305 -2.0678372 0.12026804 8 9
-0.96411526 -2.002389 -0.43199161 4 2
-0.99952894 -2.0750136 0.20150407 77 10
-0.99857527 -2.0711846 -0.36417946 6 3
-0.99005115 -2.0525885 0.27981204 97 11
-0.99989945 -2.072082 -0.28249314 7 4
-0.96273059 -1.9941679 0.3507261 74 12
-0.99252802 -2.0540578 -0.19958666 7 5
-0.35565946 -0.73538941 -0.042810816 7 6
-0.74436653 -1.5384257 0.39456415 1 14
-0.8707146 -1.7979559 -0.034869909 4 7
-0.7050212 -1.4551647 0.43326309 65 15
-0.99636531 -2.0428517 0.11911664 7 9
-0.97372532 -1.9955488 -0.43160996 3 2
-1.0138761 -2.0769138 0.20220132 79 10
-1.012875 -2.0730271 -0.36543098 6 3
-1.0103742 -2.0669947 0.28249314 100 11
-1.0089908 -2.0632515 -0.2820057 7 4
-0.97489482 -1.9926485 0.35135183 74 12
-1.0102789 -2.0631478 -0.20098113 6 5
-0.35950518 -0.73351705 -0.042810816 7 6
-0.75241137 -1.5345073 0.39456415 1 14
-0.86249703 -1.7574686 -0.034171812 5 7
-0.71603632 -1.4583899 0.43533364 58 15
-1.0132424 -2.0501406 0.11984935 8 9
-0.9798097 -1.981624 -0.42970186 4 2
-1.0238533 -2.0697911 0.20202701 73 10
-1.0263444 -2.0730062 -0.36636955 6 3
-1.0255889 -2.0705698 0.28371185 97 11
-1.0268315 -2.0721695 -0.2839556 8 4
-0.98443747 -1.9857472 0.35103899 71 12
-1.0166402 -2.0489058 -0.20010957 7 5
-0.36334085 -0.73162466 -0.042810816 7 6
-0.76043594 -1.5305465 0.39456415 1 14
-0.89216602 -1.7941108 -0.034974623 5 7
-0.72280228 -1.4528909 0.434816 51 15
-1.0293291 -2.0555222 0.12047738 8 9
-1.0007248 -1.99753 -0.43428129 4 2
-1.0346764 -2.0644019 0.20202701 75 10
-1.0380707 -2.0693696 -0.36668244 6 3
-1.0408679 -2.0740426 0.28493056 94 11
-1.0430112 -2.0774088 -0.285418 7 4
-1.0010281 -1.9929218 0.35322908 72 12
-1.0300388 -2.0488951 -0.20063251 6 5
-0.76843929 -1.526544 0.39456415 1 14
-0.90424669 -1.7947723 -0.035079334 4 7
-0.72953004 -1.4473614 0.43429837 46 15
-1.0500172 -2.0696971 0.12162878 7 9
-1.0200553 -2.0097694 -0.43809745 4 2
-1.052688 -2.0731678 0.2034215 75 10
-1.0515764 -2.0691888 -0.36762103 6 3
-1.0490141 -2.0632558 0.28419933 88 11
-1.057474 -2.0789969 -0.28639299 7 4
-1.0168244 -1.9982165 0.35510629 72 12
-1.0407524 -2.043474 -0.20063251 6 5
-0.37098223 -0.72777981 -0.042810816 7 6
-0.90545022 -1.773983 -0.034765195 5 7
-0.74676222 -1.4624475 0.4399924 28 15
-1.0608397 -2.0641711 0.12162878 7 9
-1.0359505 -2.0148773 -0.44038719 4 2
-1.0644398 -2.0693994 0.20359582 77 10
-1.0614917 -2.0618982 -0.36730817 6 3
-1.0625299 -2.0630291 0.28493056 92 11
-1.064708 -2.0663729 -0.285418 7 4
-1.0317984 -2.0016444 0.35667065 71 12
-1.0596596 -2.0539322 -0.20220132 6 5
-0.3747879 -0.72582734 -0.042810816 7 6
-0.90370542 -1.747902 -0.034346335 6 7
-0.7765981 -1.5014151 0.45293337 16 15
-1.0679444 -2.0515018 0.12121009 9 9
-1.0365107 -1.9902713 -0.43618938 5 2
-1.0853873 -2.0832338 0.20551322 75 10
-1.081407 -2.0738273 -0.37043685 6 3
