# .PCD v0.7 - Point Cloud Data file format
VERSION 0.7
FIELDS x y z intensity ring
SIZE 4 4 4 4 2
TYPE F F F F U
COUNT 1 1 1 1 1
WIDTH 1177
HEIGHT 1
VIEWPOINT 0 0 0 1 0 0 0
POINTS 1177
DATA ascii
-2.9001474 3.7263699 -0.082421899 41 0
-2.8944359 3.787159 -0.083201438 86.333336 0
-2.8396752 3.8088613 -0.082928844 71.571426 0
-2.7561932 3.811667 -0.082104847 65.75 0
-2.6811905 3.8233776 -0.081512712 67.571426 0
-2.5952172 3.8261495 -0.080699936 64 0
-2.5509794 3.8366234 -0.080420688 65 0
-2.5125711 3.8439622 -0.080158904 64.75 0
0.60710889 -4.1309524 -0.072881252 100 0
0.68389297 -4.1265039 -0.073012143 99.5 0
0.7505002 -4.1256409 -0.07319539 99.5 0
-2.1268735 -4.0305638 -0.079548068 27 0
0.77504206 -4.0783782 -0.072462395 19 0
2.0472159 -4.0144281 -0.078658 73.5 0
2.1089363 -4.0049114 -0.079007044 73.5 0
-2.1322591 -3.9676423 -0.078623086 32 0
0.77382767 -3.962533 -0.070472814 24 0
2.1056533 -3.9988 -0.078884877 76 0
2.1987312 -3.9727383 -0.07925719 39.666668 0
-2.1408839 -3.8855433 -0.077436328 30.5 0
2.3716838 -3.8915486 -0.079548068 26 0
-2.1446009 -3.7976069 -0.076127395 32 0
2.0637965 -3.8216929 -0.075813256 68 0
2.362051 -3.8082526 -0.078221686 27.5 0
-2.663903 -3.7222736 -0.079897113 32 0
-2.1508925 -3.7180011 -0.074975535 48 0
-0.56571162 -3.718643 -0.065655954 46 0
2.3564987 -3.7125876 -0.076755688 28 0
-2.6609001 -3.6446381 -0.078768529 37 0
-0.57797503 -3.6084361 -0.063788548 83.5 0
2.3584139 -3.6317492 -0.075586371 31.5 0
-2.6596272 -3.5578895 -0.077537552 37.400002 0
-1.850392 -3.5973854 -0.070612431 13 0
-0.64206892 -3.5864246 -0.063596569 85 0
-0.61387938 -3.5913444 -0.063596569 88.5 0
-0.50241792 -3.5459912 -0.062514521 59 0
-0.4364185 -3.5436225 -0.062322542 9 0
-0.3610754 -3.539027 -0.062095664 10.5 0
-0.28657806 -3.5388138 -0.061973497 12.5 0
-0.20301059 -3.5319347 -0.061753593 16 0
-0.11958201 -3.5308769 -0.061668079 31 0
-0.032289542 -3.5282125 -0.061589543 44.75 0
0.044976834 -3.5280674 -0.061589543 56 0
0.091004252 -3.5222881 -0.061502282 60 0
0.2661635 -3.523411 -0.061676804 30.5 0
0.35931301 -3.5251837 -0.06185133 22.5 0
0.72057831 -3.5898368 -0.063910715 11 0
1.7001851 -3.535882 -0.068483248 1 0
2.3499978 -3.5572 -0.074417062 31 0
-2.6722312 -3.4806054 -0.07659512 39.599998 0
-0.055250108 -3.5170305 -0.061397567 41 0
0.044799589 -3.5151672 -0.061362661 59 0
0.12752648 -3.5117848 -0.061339393 54.666668 0
0.20091185 -3.5120277 -0.061404549 43.200001 0
0.30243731 -3.5134583 -0.061554641 24.5 0
0.35815442 -3.513144 -0.061641902 22.5 0
0.44011199 -3.5022984 -0.06161572 83 0
1.6387926 -3.4544003 -0.066738002 1 0
2.3539565 -3.4847724 -0.073404819 31.333334 0
-2.6693985 -3.3931715 -0.075359493 39.5 0
1.7039083 -3.4294357 -0.06684272 97 0
2.3488901 -3.4010983 -0.072148249 37 0
-2.6733747 -3.3440976 -0.074731201 42 0
-0.62977558 -3.3202868 -0.058989134 1 0
2.3454423 -3.3213463 -0.070973121 36.666668 0
-2.6789358 -3.2454977 -0.073457181 39 0
-0.62953722 -3.22666 -0.057383511 1 0
2.3478601 -3.2339742 -0.069757268 33.5 0
-2.6759567 -3.1405613 -0.072020262 39.666668 0
-2.5781629 -3.197437 -0.071694486 7 0
-0.62597656 -3.1213655 -0.055568464 3 0
0.72758007 -3.189569 -0.057104275 1 0
2.3470204 -3.1626549 -0.068745032 34.5 0
-2.6857934 -3.0864 -0.071415246 33.5 0
-0.81351602 -3.0488515 -0.055079795 1 0
-0.76761216 -3.0534163 -0.054957632 1 0
-0.64704448 -3.0598593 -0.05459113 1 0
-0.63706642 -3.0925839 -0.055114701 4 0
2.342231 -3.0874982 -0.067645527 23.5 0
-1.3799902 -2.9838364 -0.057383511 1 0
-1.2887434 -2.9895563 -0.056825034 1 0
-0.94300383 -2.9945407 -0.054800559 13 0
-0.84841168 -3.0205817 -0.054765653 1 0
-0.73945975 -3.0264995 -0.054381698 1 0
-0.6784215 -3.0130448 -0.053910486 2.25 0
0.75592697 -3.0203233 -0.054346796 2.5 0
1.1834102 -3.0027242 -0.056336369 1 0
1.3779066 -2.9847991 -0.057383511 49 0
2.3363817 -2.9977992 -0.066342413 34.666668 0
-2.3608503 -2.9154079 -0.065481432 17 0
-1.4487584 -2.9287665 -0.057034463 7 0
-1.2691253 -2.9021525 -0.055289224 5 0
-1.1717045 -2.902967 -0.054643486 2.5 0
-1.0882666 -2.9139295 -0.054294437 3.5 0
-1.0042777 -2.9196239 -0.05389303 4 0
1.0855615 -2.9330807 -0.05459113 1 0
1.150821 -2.9209499 -0.054800559 1 0
2.3424962 -2.9104779 -0.065213829 36 0
0.79531711 -2.8049843 -0.050891217 62 0
2.3326292 -2.8222184 -0.063910708 36.5 0
2.3397443 -2.7571096 -0.063119538 39.666668 0
2.3348811 -2.6662588 -0.061862964 35.666668 0
-2.6736646 -2.620074 -0.065341808 6 0
2.3370829 -2.5992794 -0.061013613 44 0
-2.1944051 -2.501359 -0.058081608 1 0
2.3362849 -2.5180237 -0.059957743 42.25 0
-2.1361682 -2.4105117 -0.056220021 2 0
2.3329642 -2.4246848 -0.058733165 42.666668 0
-2.1235127 -2.345407 -0.055226397 65 0
2.3320446 -2.3500969 -0.057790738 46.333332 0
-2.3250709 -2.2413766 -0.056371275 58 0
-2.3118706 -2.2521248 -0.056336369 2 0
-2.1452556 -2.283982 -0.054695845 20.714285 0
2.3267145 -2.2721856 -0.056766864 44 0
-2.3537002 -2.2163172 -0.056432359 34.875 0
-2.3044446 -2.2339423 -0.056022223 49 0
-2.1970804 -2.2200902 -0.054521319 65.111115 0
-2.1484337 -2.234118 -0.054102458 57 0
2.3280811 -2.2034433 -0.055952415 42 0
2.3286459 -2.1249588 -0.055027436 42.75 0
2.3199849 -2.0403097 -0.053927936 50 0
2.3263614 -2.0319242 -0.053916305 49 0
2.3149548 -1.9418099 -0.05274117 47 0
2.3285675 -1.9845711 -0.053404365 46 0
-2.789453 -1.8487632 -0.058413204 30 0
2.3147829 -1.8505142 -0.051728934 51 0
2.3267195 -1.900391 -0.052438665 48 0
-2.8189244 -1.8201571 -0.058570277 24 0
-2.7916241 -1.8242377 -0.058209594 51 0
2.3136709 -1.8044962 -0.051216993 51 0
2.3242733 -1.7996448 -0.051310074 52 0
2.3097396 -1.722014 -0.050289109 51 0
-2.5672011 -1.6010517 -0.052810986 50 0
-2.5556645 -1.6044095 -0.052671362 19 0
2.3060813 -1.6367575 -0.049362384 50.200001 0
-2.5667946 -1.5596472 -0.052427027 52 0
-2.5131204 -1.5856612 -0.05186855 1 0
-1.7741759 -1.563246 -0.041274942 47 0
-1.7439675 -1.560243 -0.040847357 63.25 0
2.2998202 -1.5529402 -0.048439153 53.75 0
-2.5715108 -1.485417 -0.051837519 54.222221 0
-1.9403709 -1.474852 -0.042543154 46.166668 0
-1.8608174 -1.4444392 -0.041117873 58 0
-1.7816886 -1.4700981 -0.040321406 82.63636 0
-1.7583859 -1.496698 -0.04030633 40.25 0
2.298804 -1.4837116 -0.047758508 57.25 0
-2.5730557 -1.4020975 -0.051149517 56.099998 0
-2.2180643 -1.4087124 -0.045864921 1 0
-2.0974593 -1.4104971 -0.044119682 1 0
-2.0282271 -1.3938817 -0.042957854 25 0
-1.9560477 -1.4112345 -0.042102963 59.222221 0
-1.9189482 -1.417357 -0.041641444 42 0
-1.8155388 -1.4315422 -0.040356945 94 0
2.29669 -1.4072139 -0.047016781 57.400002 0
-2.57535 -1.317258 -0.0504933 57.599998 0
-2.130583 -1.3599464 -0.044119682 1 0
2.2905376 -1.3229264 -0.04617209 58.200001 0
-2.5778804 -1.2389839 -0.049925517 57.444443 0
2.284029 -1.2412828 -0.045376256 58.200001 0
-2.5800633 -1.1620725 -0.049393803 52.299999 0
2.2823288 -1.1569976 -0.044666525 58.333332 0
2.2818739 -1.0757797 -0.044035912 62.200001 0
-2.3300762 -0.98466963 -0.044154588 18.833334 0
2.2770326 -0.99480391 -0.043375049 63.666668 0
-2.2969806 -0.91455728 -0.043156311 43.599998 0
2.2746632 -0.9175728 -0.042814244 65.400002 0
-2.2877507 -0.8447448 -0.042568915 34.142857 0
-2.2343485 -0.80705899 -0.041466918 34 0
2.2710743 -0.84123164 -0.042275548 68 0
-2.2463341 -0.7565456 -0.041376166 50.599998 0
-2.2310061 -0.75941247 -0.041137815 55.714287 0
2.2686341 -0.76101899 -0.041769426 71 0
-2.2784801 -0.66725171 -0.041442484 38.700001 0
-2.2319746 -0.70153153 -0.040838629 46 0
2.2661042 -0.68213385 -0.041309848 73.333336 0
-2.8477054 -0.60066819 -0.050802372 74.090912 0
-2.7669425 -0.62914187 -0.049529929 18 0
-2.3739004 -0.56247449 -0.042583872 14 0
-2.3056836 -0.62970531 -0.041719977 30.25 0
-2.1897547 -0.57628495 -0.039523885 39 0
2.2658577 -0.59941596 -0.040913429 76.571426 0
-2.8530469 -0.5280782 -0.050646886 78.25 0
-2.4163616 -0.55652875 -0.043281965 12 0
-2.378087 -0.55339867 -0.042618778 11 0
-2.279639 -0.55252242 -0.040943347 13 0
-2.1778626 -0.54920089 -0.039205085 29.200001 0
2.259249 -0.51658064 -0.040454682 83.666664 0
-2.616287 -0.42791098 -0.046275061 75.25 0
2.2549841 -0.44199124 -0.040111449 88.833336 0
-2.6020985 -0.35525388 -0.045843981 47.200001 0
-2.4341679 -0.32392269 -0.042863112 3 0
-2.3737462 -0.32797155 -0.0418276 6.6666665 0
2.2522678 -0.36244246 -0.039821405 91.85714 0
-2.602946 -0.28029314 -0.045699131 86.083336 0
2.2495182 -0.27834746 -0.039567102 93.571426 0
-2.5901952 -0.20021842 -0.045350075 88 0
-2.4746187 -0.2112796 -0.043351781 29 0
-2.3296604 -0.17756136 -0.040782787 72.800003 0
-2.3131781 -0.17311658 -0.040489584 54 0
2.2488921 -0.20149691 -0.039413352 94.333336 0
-2.5966504 -0.14288709 -0.045393709 96.833336 0
-2.2797568 -0.092607185 -0.039826393 94.199997 0
2.239404 -0.10051581 -0.039128296 100 0
2.2485158 -0.12881553 -0.039314456 100 0
-2.5436087 -0.0044395556 -0.044398922 88 0
-2.2838418 -0.041889697 -0.039872929 100 0
2.2392535 -0.042604901 -0.03909339 100 0
2.2534425 -0.042788178 -0.03934354 93.333336 0
-2.5928533 0.040298205 -0.045265723 92.75 0
1.7427958 0.057205886 -0.030436996 9 0
2.2368083 0.061698478 -0.039058488 71 0
2.2514286 0.027468985 -0.039302818 100 0
-2.5881441 0.1216322 -0.045227911 96.333336 0
1.7131755 0.12343392 -0.029983234 77.5 0
-2.5857084 0.20302778 -0.045274451 91.666664 0
1.7636915 0.16858205 -0.030925665 2 0
-2.5876789 0.28172418 -0.04543655 105 0
2.2335093 0.28418794 -0.039302815 85.333336 0
2.2469876 0.27402738 -0.039512247 100 0
-2.5860155 0.36031136 -0.045576956 80.25 0
2.2350068 0.37111071 -0.039547157 99.333336 0
2.2457135 0.34490407 -0.039660595 98.75 0
3.8319681 0.38653433 -0.067226671 4 0
-2.5820467 0.43927518 -0.045718957 78.090912 0
2.2326479 0.44479162 -0.039739128 89.25 0
2.2415521 0.43249992 -0.039849661 91 0
-2.5818403 0.51633334 -0.045960125 77 0
2.231071 0.52127582 -0.039993934 89 0
2.2422276 0.50160903 -0.04010563 87 0
-2.8791227 0.63143581 -0.051449694 75 0
-2.6875858 0.58058602 -0.047994118 77 0
2.2316926 0.59761912 -0.04032902 85.400002 0
2.2405767 0.60000563 -0.040489584 85 0
-2.8923683 0.67330223 -0.051837523 74.222221 0
-2.8411181 0.70886213 -0.051112283 60.666668 0
-2.7574971 0.71446872 -0.049721908 32.5 0
-2.6617928 0.71534634 -0.04811047 31 0
-2.5975287 0.71669495 -0.047034234 54.5 0
2.2279928 0.67805934 -0.040652473 83.333336 0
-2.6031637 0.76240885 -0.047348376 79.699997 0
2.2283032 0.75624067 -0.041075986 76.599998 0
2.2424734 0.75336951 -0.041292395 77 0
-2.6070452 0.84150106 -0.047819592 78.454544 0
2.2310441 0.84121311 -0.041621499 70 0
-2.6111817 0.92236221 -0.048339676 73.599998 0
2.2251484 0.9192937 -0.042025395 69 0
-2.614531 1.0007002 -0.048866741 70.699997 0
2.2243268 0.99452049 -0.042531516 68.833336 0
-2.6135573 1.079416 -0.049358901 72.900002 0
2.2186134 1.076208 -0.043043453 68.833336 0
-2.6194713 1.1626061 -0.050025582 77.400002 0
2.2162807 1.1621972 -0.043683376 64.666664 0
-2.6212041 1.2420899 -0.050631367 81 0
2.2147157 1.2435246 -0.044336092 60.599998 0
-2.6272426 1.3218603 -0.051337224 74.777779 0
2.2068024 1.3239912 -0.04492249 56.5 0
-2.6422908 1.4253141 -0.052403763 68.333336 0
-2.6291382 1.3830609 -0.051854592 70.599998 0
2.2061467 1.4101696 -0.045704361 59 0
-2.6294279 1.4721164 -0.052601553 65.666664 0
2.2095551 1.4865044 -0.046484485 57.5 0
-2.6320398 1.5513862 -0.05333019 66.5 0
2.2036791 1.5585359 -0.047114521 57.400002 0
-2.6438694 1.6100346 -0.054032654 66.666664 0
-2.6319177 1.6499609 -0.054222129 63.57143 0
2.1995716 1.6430756 -0.04792431 54.599998 0
-2.6614599 1.7504343 -0.05560337 49.666668 0
-2.63608 1.7106417 -0.054852914 59.5 0
2.1955314 1.7298028 -0.048789948 51.799999 0
-2.6485605 1.8037876 -0.055934966 60.5 0
2.1907835 1.8111812 -0.049617194 48.75 0
-2.6475656 1.8795474 -0.056675442 65.428574 0
2.1862154 1.8855511 -0.050393824 50 0
-2.6487513 1.9593618 -0.057510041 68.25 0
2.179106 1.9594254 -0.051153004 48.75 0
-2.6533883 2.0413592 -0.058436472 62 0
-2.6395154 2.0555456 -0.058395755 64 0
2.1793351 2.0434349 -0.052147791 43.5 0
-2.6485455 2.1191809 -0.059208538 63.142857 0
2.1847665 2.1246414 -0.05319494 45 0
-2.6447105 2.2009928 -0.060059551 65 0
-2.6377113 2.1666398 -0.059582517 64 0
2.180548 2.1984944 -0.054050103 45.25 0
-2.6465664 2.2753644 -0.060922861 66.400002 0
-2.6397288 2.2882452 -0.060978707 68.5 0
2.1757739 2.2752826 -0.054951813 42 0
-2.6461277 2.360173 -0.061892051 69 0
2.175895 2.3606164 -0.056039676 40 0
-2.6423559 2.4485049 -0.062881023 62.5 0
-2.6374152 2.4210024 -0.062491249 65.333336 0
2.1786864 2.451175 -0.057243895 41.333332 0
-2.6451304 2.5046079 -0.063584931 63.333332 0
-2.6318467 2.5330019 -0.063759454 63.666668 0
2.1582501 2.5431211 -0.058221228 38 0
2.1661787 2.5142102 -0.057928026 39.599998 0
-2.6412063 2.6159761 -0.064888045 68 0
-2.6370974 2.5916023 -0.064539 68.25 0
2.1675313 2.6031983 -0.059128758 37.666668 0
-2.6418939 2.6492822 -0.065306902 68 0
-2.6341128 2.6845076 -0.065648973 68.400002 0
2.1631017 2.6751323 -0.060050242 40 0
-2.6428578 2.7573977 -0.066668198 63.5 0
-2.6346958 2.7264016 -0.066179529 63 0
2.157135 2.7910113 -0.06157209 38 0
2.1657479 2.7502799 -0.061104365 40.200001 0
2.1567051 2.8203487 -0.061973497 36 0
2.1636205 2.860312 -0.062601782 35.5 0
2.154408 2.9270496 -0.063439496 36.5 0
2.163589 2.8916149 -0.063038096 37 0
-2.8263142 2.972075 -0.071589775 58 0
2.1535506 2.9907479 -0.064329572 36 0
-2.8855591 3.0578022 -0.07338737 48.5 0
-2.8756847 3.0866985 -0.073637523 44.333332 0
2.1540573 3.0830455 -0.065648973 36 0
2.1604862 3.0423481 -0.06513238 33 0
-2.8838902 3.1616318 -0.074696302 42.666668 0
-2.8795593 3.124922 -0.074172728 43 0
2.1514773 3.1582057 -0.066703096 36.75 0
-2.8873739 3.232939 -0.075661995 43.333332 0
-2.8774931 3.2391365 -0.075627096 41.666668 0
2.1507571 3.2372468 -0.067840993 37.400002 0
-2.8846292 3.3248854 -0.076834217 40.75 0
2.1463423 3.3140495 -0.068919554 37 0
-2.8873596 3.3812594 -0.07761085 42 0
-2.8737803 3.400667 -0.077715568 40.5 0
2.144562 3.3980091 -0.070137732 38.400002 0
-2.8846254 3.4672322 -0.078727804 40 0
2.1339178 3.4714417 -0.071127281 39.5 0
-2.8953519 3.5361836 -0.079774953 38.5 0
2.1401112 3.563612 -0.072558381 36.25 0
2.1310799 3.6335001 -0.073526993 33.25 0
2.1273143 3.7142656 -0.074713752 32.25 0
-2.4717228 3.8383062 -0.079687685 68 0
2.1272376 3.7943792 -0.075929604 35 0
-2.4369314 3.8476758 -0.079499207 68 0
-2.3651373 3.855655 -0.078954689 70.333336 0
-2.2822566 3.8665049 -0.078371286 73 0
-2.196871 3.8694689 -0.077669024 72.5 0
-2.1239965 3.8818552 -0.077238537 74.5 0
-2.0403156 3.8842983 -0.076586142 73 0
-1.9599748 3.8901026 -0.076034322 73.333336 0
-1.882993 3.9015076 -0.075618789 74.285713 0
-1.8148099 3.9074316 -0.07520242 76.25 0
-1.7060554 3.918005 -0.074591585 78 0
2.1207776 3.8767192 -0.077132657 32.200001 0
-1.7867023 3.9266005 -0.075301312 78.666664 0
-1.7245235 3.9247081 -0.074828938 77.199997 0
-1.6399881 3.9355481 -0.074422054 76.714287 0
-1.5604855 3.9453273 -0.074058048 76.714287 0
-1.4791164 3.948189 -0.073594309 76.714287 0
-1.4014006 3.9606845 -0.073335014 75.85714 0
-1.3249109 3.9721701 -0.07309068 76.571426 0
-1.2392304 3.9737978 -0.072658733 83.375 0
-1.156783 3.9815309 -0.072372638 70.428574 0
-1.0800165 3.9852791 -0.072073452 83 0
-1.0044162 3.994103 -0.071888961 89.14286 0
-0.92708606 3.9939606 -0.071568832 94.199997 0
-0.83133537 3.99455 -0.07121978 88.199997 0
1.4220908 3.994765 -0.074015662 81.5 0
1.5396252 3.9934943 -0.074707933 80.666664 0
1.6593536 3.9922101 -0.075464204 71.333336 0
1.7140239 3.9951146 -0.075883068 74.800003 0
1.7935812 3.9885914 -0.076336816 70.599998 0
1.8865632 3.9941664 -0.077104732 73 0
1.9277828 3.9922431 -0.077383965 75 0
2.0452242 3.9941092 -0.078326404 43.5 0
2.1162105 3.9909163 -0.078849971 46.75 0
-0.96281016 4.0011616 -0.071834102 91 0
-0.89292133 4.0111847 -0.071729392 85.5 0
-0.8662979 4.0067816 -0.071554869 94.5 0
-0.76150018 4.0078559 -0.071210183 96.75 0
-0.67593002 4.0117655 -0.071013838 98.625 0
-0.59470803 4.008019 -0.070727125 99.714287 0
-0.52115875 4.0116191 -0.070612438 98.14286 0
-0.44268268 4.0192575 -0.070581898 96.625 0
-0.35791817 4.0204144 -0.070455357 99.375 0
-0.27882105 4.0205321 -0.070348158 98.85714 0
-0.20022453 4.0195823 -0.070250303 100 0
-0.12219626 4.0223341 -0.070243441 100 0
-0.043342374 4.0245829 -0.070254669 100 0
0.040641844 4.0221119 -0.070211031 100 0
0.12397127 4.0231576 -0.070259027 100 0
0.20302315 4.0262156 -0.070368104 100 0
0.28199187 4.027451 -0.070472822 98.875 0
0.36083144 4.0234694 -0.070512712 99.85714 0
0.44000363 4.0233245 -0.070647337 98.75 0
0.52043706 4.0269794 -0.07087671 95.14286 0
0.60072714 4.029017 -0.071105473 93.875 0
0.6797213 4.0191083 -0.071150973 95 0
0.76104522 4.0214252 -0.071441427 87.75 0
0.84321129 4.0227523 -0.071744345 86.571426 0
0.92060459 4.0262647 -0.07209339 84.14286 0
0.99694425 4.0201149 -0.072297849 83.714287 0
1.0691476 4.0209436 -0.072625279 82.5 0
1.1700554 4.019485 -0.073073231 81 0
1.2365795 4.0127754 -0.073294297 78.166664 0
1.3158177 4.0093894 -0.073657885 75.5 0
1.3943098 4.0115042 -0.074130841 80.800003 0
1.4787682 4.0071559 -0.074556679 78.833336 0
1.5640116 4.0036201 -0.075027898 76 0
1.6227003 4.0072417 -0.075464211 70.25 0
1.7434704 4.0020514 -0.076197207 72 0
1.8349818 4.0005684 -0.0768255 73 0
1.8634858 4.0016971 -0.077052377 72.5 0
1.9710125 4.0011768 -0.077855185 75 0
2.0131419 4.0070372 -0.078274041 72.5 0
2.1056626 4.0089245 -0.079041943 33.5 0
1.1442237 4.1121092 -0.074504331 17 0
1.1668941 4.1878042 -0.075883061 16 0
0.76270002 -4.184411 0.07424254 9 0
0.61478418 -4.0988145 0.072346039 25.666666 0
0.67946213 -4.0906177 0.072380953 17.666666 0
0.75535119 -4.1460571 0.073561892 13.5 0
-2.1204729 -4.0474849 0.079757497 31 0
2.0719101 -4.0073848 0.078745253 60 0
2.1049242 -4.0195107 0.079199016 43 0
-2.1178999 -3.9673944 0.078500926 30.5 0
-2.0680156 -3.9981427 0.078570738 20 0
2.0254445 -3.9683077 0.077767923 36 0
-2.1317716 -3.8962498 0.077523589 28.5 0
1.9677495 -3.9056385 0.076336823 10 0
2.0664742 -3.8475056 0.076232105 40 0
-2.132504 -3.8009739 0.076075047 34 0
-0.57008624 -3.8190975 0.067401193 75 0
-2.1368451 -3.7191753 0.074870825 35.5 0
2.0743954 -3.7223647 0.074382156 11 0
-0.59621602 -3.6091616 0.063852541 80 0
-0.55644381 -3.6027265 0.063631475 72 0
-0.65163201 -3.5928288 0.063736185 80 0
-0.63281101 -3.5961916 0.063736185 82 0
-0.45101485 -3.5206394 0.061956044 9 0
-0.35841203 -3.5220773 0.061798971 9 0
-0.27578741 -3.5305991 0.061816424 22.5 0
-0.22026984 -3.5305848 0.061746612 19.5 0
-0.13681076 -3.5294459 0.061653536 36 0
-0.026669472 -3.5253313 0.061537188 47 0
0.05558224 -3.5380125 0.061764065 61.5 0
0.1292249 -3.5240824 0.061554641 79.5 0
0.23061478 -3.5279322 0.06171171 47 0
-0.43164223 -3.5129957 0.061781518 7.5 0
-0.35748434 -3.5152996 0.061676804 7.3333335 0
-0.27415043 -3.5107648 0.061467379 13.5 0
-0.18235847 -3.5147243 0.061432473 24 0
-0.090546712 -3.5162878 0.061397567 41.5 0
-0.063157894 -3.5128973 0.061327755 47 0
0.018412219 -3.5154045 0.061362661 52 0
0.1135146 -3.5128253 0.061351027 58.666668 0
0.19244809 -3.5081584 0.061327755 50.333332 0
0.27551687 -3.5086026 0.061432473 55.25 0
0.35834062 -3.5046966 0.061495297 22.4 0
0.44496569 -3.5072727 0.06171171 88.666664 0
0.4880392 -3.503634 0.061746612 77 0
1.6664733 -3.4411321 0.066738002 1 0
0.6765148 -3.3192434 0.059128754 1 0
0.68569237 -3.2765098 0.058430657 1 0
3.2309909 -3.2366347 0.079827309 43 0
3.234185 -3.1727598 0.079082675 34 0
-2.5909452 -3.0427136 0.069757268 20 0
-0.62975454 -3.0624328 0.054573677 4 0
0.71811914 -3.1055684 0.055638272 1 0
0.76366419 -3.0809209 0.055405572 1 0
1.3642981 -3.1006031 0.059128754 1 0
3.232523 -3.07374 0.077861004 34.666668 0
-0.95062327 -2.9931798 0.054818012 16 0
-0.84366167 -3.0073419 0.054521315 2 0
-0.76061535 -3.0129139 0.054242082 1.8 0
-0.68530101 -3.0114865 0.053910483 2.75 0
0.78111839 -3.0160165 0.054381698 1 0
1.1770221 -2.9622405 0.055638272 1 0
1.2555894 -2.979022 0.056429446 1 0
1.3160537 -2.9906993 0.057034463 1 0
1.3604141 -3.0059869 0.057592943 1 0
3.2383664 -2.9998565 0.077052377 40 0
-3.3590307 -2.8948445 0.077401422 43.5 0
-2.5374272 -2.9247873 0.067587353 35.666668 0
-2.4221961 -2.9582915 0.066738002 1 0
-2.3940942 -2.911509 0.065795571 13 0
-1.467115 -2.9106257 0.056894843 23.666666 0
-1.3526789 -2.9061255 0.055952415 5 0
-1.1929139 -2.9364483 0.05532413 1 0
-1.0792564 -2.8927577 0.05389303 2 0
0.78128529 -2.9249833 0.052845888 1 0
0.91805887 -2.8870764 0.052880794 1 0
0.99362981 -2.8873475 0.053299651 5 0
1.0698528 -2.9111211 0.054137364 1 0
1.1820428 -2.9300742 0.055149604 1 0
3.247905 -2.9306099 0.076360099 40 0
-3.3684635 -2.8421156 0.076930203 32 0
-1.090135 -2.8758478 0.053683605 2 0
-0.98756993 -2.874629 0.053055316 13 0
0.79003334 -2.8106318 0.050961025 13 0
0.84814042 -2.8451278 0.05182201 1.3333334 0
0.9272235 -2.8721266 0.052683 1 0
0.99573338 -2.8695979 0.05302041 1 0
3.1920352 -2.8201039 0.07434725 61 0
3.1547327 -2.7443287 0.072985962 53 0
-3.5210087 -2.7037184 0.077488683 22 0
-3.4917064 -2.7040546 0.077087283 25 0
3.1547472 -2.6726456 0.072171517 58 0
-3.4523287 -2.6090817 0.075534016 1 0
-3.4184141 -2.6041484 0.075010449 11.5 0
3.1622345 -2.6086469 0.071554869 61 0
3.1586847 -2.5241075 0.070577532 58.75 0
3.1657541 -2.4362957 0.069728173 58 0
-2.183984 -2.351835 0.056022227 61 0
-2.1280544 -2.3461339 0.055289224 37.666668 0
3.1688778 -2.3615134 0.068983547 57 0
-2.363596 -2.2690966 0.057191536 5 0
-2.1708403 -2.2748976 0.05488782 62.333332 0
-2.1597276 -2.2758784 0.054765653 61 0
3.1651933 -2.2819865 0.06811092 57.333332 0
-2.3645568 -2.216239 0.056569066 58.833332 0
3.1707749 -2.2001708 0.067366287 58 0
3.1831396 -2.1240017 0.066796176 60.333332 0
3.1835217 -2.0414827 0.066013731 66.25 0
3.1825285 -1.9595019 0.065237097 63.333332 0
3.1878235 -1.8838921 0.064634986 64.75 0
3.1868517 -1.7955709 0.063849628 57 0
3.1816826 -1.7275574 0.063195169 55.5 0
-2.5539711 -1.6033462 0.052636456 10 0
3.0034211 -1.600984 0.05940799 23 0
-2.56164 -1.5347376 0.052124519 17.333334 0
-2.54898 -1.5683843 0.052240867 14.666667 0
-2.0768361 -1.5435206 0.045166828 1 0
-1.8933548 -1.5595487 0.042816568 5 0
-1.7628226 -1.5519567 0.040995702 100 0
-1.7559903 -1.5701914 0.041117869 100 0
2.976887 -1.5569937 0.058640085 23 0
-2.5669272 -1.4716114 0.051647488 26 0
-2.5558686 -1.5013409 0.051740568 22.333334 0
-2.0212657 -1.511 0.044049874 1 0
-1.9983833 -1.5015194 0.043631013 1 0
-1.8513451 -1.4806236 0.041379657 38 0
2.9360995 -1.4776069 0.057374787 20 0
-2.5695736 -1.3969028 0.051052656 39.625 0
-2.5585079 -1.4124409 0.051013384 32.5 0
-2.0135376 -1.3810176 0.042618778 10.5 0
-1.9762176 -1.4060446 0.04233636 38.454544 0
2.9053061 -1.39643 0.056266557 27.666666 0
-2.5715544 -1.3206019 0.050460722 43.888889 0
2.8788896 -1.2920129 0.055079795 36 0
2.8972301 -1.3369292 0.055696446 38.333332 0
-2.5760105 -1.2391629 0.049898017 49.272728 0
2.8735979 -1.2307466 0.054567855 44.333332 0
2.883399 -1.2495538 0.05485291 40.5 0
-2.583251 -1.1564384 0.049404271 55.700001 0
2.870604 -1.1569386 0.054023921 39.75 0
-2.5770123 -1.0937815 0.048866738 50.666668 0
-2.5361254 -1.069065 0.048040658 47 0
2.8633599 -1.0765542 0.053397387 46 0
-2.5862024 -0.98771584 0.048323222 66.285713 0
2.8713598 -0.99980712 0.053072765 50 0
2.8808193 -0.98183304 0.053125124 51 0
-2.5804875 -0.94740796 0.047982484 63.666668 0
-2.3528669 -0.9343769 0.044189494 42.333332 0
-2.3134069 -0.93608326 0.043561205 18 0
2.8735642 -0.91738766 0.052653909 51.75 0
2.888195 -0.90123177 0.052810986 52 0
-2.2792687 -0.81012297 0.042223189 47.333332 0
2.8986576 -0.83835679 0.052671365 53 0
-2.5806496 -0.77865905 0.047051687 69 0
-2.5230765 -0.76147807 0.046004545 68.5 0
-2.4358439 -0.76986074 0.044590898 40 0
-2.3466587 -0.76734549 0.043095812 42 0
-2.2971785 -0.77594483 0.042324577 48.142857 0
2.9351132 -0.75935811 0.052921515 48.833332 0
-2.5948465 -0.66956472 0.046777438 70.714287 0
-2.4721701 -0.71542555 0.044922493 110 0
-2.3668571 -0.67645079 0.042967826 51 0
-2.3071563 -0.64750689 0.0418276 99.333336 0
2.9599388 -0.70843327 0.053125124 49 0
2.9781716 -0.67171282 0.053290926 47.25 0
-2.8533266 -0.59876359 0.050891213 77.300003 0
-2.7587204 -0.62469953 0.049372859 21 0
-2.6735873 -0.61577213 0.047889404 12 0
-2.5968254 -0.6232428 0.046615377 60.666668 0
-2.3063185 -0.63310164 0.041746158 100 0
3.0015035 -0.62812155 0.053526532 29 0
3.246434 -0.59996057 0.057627846 98.599998 0
-2.8583596 -0.53394651 0.050756581 83.85714 0
3.2443588 -0.52112317 0.057357334 95.25 0
3.2820749 -0.48348406 0.057907082 12 0
-2.6883636 -0.47257951 0.04764507 36 0
-2.6067791 -0.42718834 0.046109255 77.875 0
3.0016525 -0.41010782 0.052880794 6 0
3.1882415 -0.40220326 0.056092035 25 0
3.2532427 -0.44439745 0.057313703 14.5 0
3.8102393 -0.42978466 0.066929981 50 0
-2.6062622 -0.36099395 0.045928393 80.090912 0
3.2438371 -0.3925474 0.057034463 59 0
3.810334 -0.36013284 0.066807814 92.800003 0
-2.5984087 -0.30793276 0.045672946 80 0
-2.3539364 -0.25427315 0.041327298 100 0
3.8137574 -0.27069747 0.066737995 81.25 0
-2.5766251 -0.1603016 0.045062114 98 0
-2.4984567 -0.16069241 0.043700829 119 0
-2.4022002 -0.16166002 0.042025398 97 0
-2.3507516 -0.1993801 0.041181862 81 0
3.8155951 -0.19059822 0.066685639 98.5 0
-2.592937 -0.11970324 0.045309618 103.18182 0
3.2523601 -0.086302117 0.056790132 15 0
3.8101642 -0.1307565 0.066546023 86.5 0
-2.589844 -0.061710268 0.045219187 96.333336 0
-2.290381 -0.015807686 0.039979972 55.599998 0
2.947551 -0.0015433341 0.051449694 29 0
3.2611508 -0.044101086 0.056929752 32 0
-2.5860999 0.056342144 0.045151863 91 0
-2.5174646 0.027681835 0.04394516 22 0
-2.3615468 0.02102061 0.041222587 32 0
-2.3102968 0.0076774736 0.040326696 50.333332 0
2.9595163 0.013947959 0.051659122 86 0
3.814949 0.057693031 0.066598378 85.666664 0
-2.5883472 0.12081435 0.045230821 107.91666 0
3.8182511 0.12669668 0.066685647 97.75 0
-2.5832827 0.20195933 0.045230821 104.91666 0
3.8137908 0.20607281 0.06666819 100 0
-2.5801926 0.27994564 0.045303274 101.90909 0
3.8116798 0.28545517 0.066720545 98.5 0
-2.5760434 0.35823545 0.045399528 92.5 0
3.8083677 0.36534545 0.066781633 99.25 0
-2.5796387 0.44158593 0.04568458 88.916664 0
3.8133469 0.44609499 0.067017242 97.75 0
-2.5777867 0.51805043 0.04589634 84.800003 0
3.291213 0.5416224 0.058221228 75 0
3.808259 0.52555072 0.067104504 89.25 0
-2.8816264 0.62934917 0.051484596 77 0
-2.8737781 0.63710135 0.051379886 80 0
-2.6992118 0.58358991 0.048203547 94 0
3.2869194 0.56715882 0.058221228 66 0
3.6667488 0.57419753 0.064783335 100 0
3.7824059 0.57203633 0.066772908 66 0
-2.8874018 0.68044001 0.051781293 83.5 0
-2.860945 0.68844813 0.051365923 71 0
-2.7569666 0.70988536 0.049692821 33.333332 0
-2.6786423 0.71553588 0.048395526 35 0
-2.6248746 0.71906918 0.04750545 43 0
3.8059218 0.69787055 0.067540817 84.666664 0
-2.5987086 0.75652713 0.047245249 90.63636 0
3.8102779 0.7602064 0.06782005 91.333336 0
-2.6014035 0.83492976 0.047690444 91.400002 0
3.809881 0.83279878 0.068073109 91 0
-2.6070318 0.91609228 0.048235275 88.818184 0
3.8096569 0.91645348 0.06839598 93 0
-2.6140552 0.99970883 0.048852779 80.599998 0
3.8111293 1.0007685 0.068779938 96.25 0
-2.6150301 1.0789983 0.049379837 78.599998 0
3.8092856 1.08513 0.069137707 97 0
-2.6133838 1.1590743 0.049903411 76.400002 0
2.9574969 1.1781265 0.055568464 67 0
2.9776287 1.1636183 0.05580407 53 0
3.06672 1.1392455 0.057104275 18 0
3.157517 1.1354809 0.058570273 21 0
3.2229412 1.1305544 0.059617419 17 0
3.306468 1.1307039 0.06099616 14 0
3.3901756 1.1297331 0.062374901 12 0
3.4881523 1.1326201 0.064015426 12 0
3.6075206 1.1402162 0.066039905 12 0
3.741401 1.1610211 0.06837853 27 0
3.8212256 1.1529695 0.069670007 88 0
-2.6178839 1.2397591 0.050561562 78.777779 0
2.9646039 1.2438138 0.056118213 63.25 0
-2.6216362 1.3176782 0.051216997 72.333336 0
2.952574 1.3120133 0.056397453 60.75 0
-2.6258368 1.3980336 0.051926725 71.444443 0
2.9486525 1.3936573 0.056929749 56.799999 0
-2.6281943 1.4793077 0.052644212 76.111115 0
2.9428926 1.4763324 0.057470776 54 0
-2.6306679 1.5586209 0.053373821 75.25 0
2.9449203 1.5553925 0.058133967 76.75 0
-2.6304567 1.6384709 0.054094702 74.888885 0
2.9456604 1.634861 0.058805883 59.5 0
-2.6619198 1.7461118 0.055568468 55.333332 0
-2.6264403 1.6930746 0.054544587 68.666664 0
2.9539378 1.721415 0.059678502 58.25 0
-2.6498196 1.7981546 0.055898122 77.444443 0
2.950388 1.7922827 0.060257345 53.333332 0
-2.6444819 1.8794186 0.05663057 74.428574 0
-2.6392286 1.8922905 0.056685418 72 0
2.9517801 1.8771578 0.061060149 51.333332 0
2.9600282 1.8403063 0.060839087 53 0
-2.6477883 1.9629059 0.057533104 65.285713 0
2.9754686 1.9583369 0.062177103 33.333332 0
-2.6507843 2.041384 0.058400739 76.571426 0
-2.6381435 2.0767596 0.058605183 83 0
-2.6458204 2.138737 0.059384722 80 0
-2.6347306 2.0950265 0.058756441 77 0
-2.6443982 2.1773729 0.059791945 77.5 0
-2.6343982 2.209235 0.060013011 75.666664 0
-2.6485772 2.2791934 0.060992669 69 0
-2.6371975 2.2910516 0.060978711 71 0
-2.6458817 2.3647666 0.061942082 69 0
3.3229117 2.3903954 0.071450152 30 0
3.3848639 2.3947759 0.072375134 32 0
3.4989898 2.3953204 0.074015662 28.5 0
3.558121 2.3954694 0.074870825 26 0
-2.6474569 2.4371068 0.062811211 70.166664 0
-2.6343639 2.4557242 0.062863566 68 0
3.2294579 2.452843 0.07078696 11 0
3.3038821 2.4030552 0.071310528 43 0
3.454834 2.4047503 0.073474631 30 0
-2.6412804 2.5264201 0.063799016 63.400002 0
-2.6335707 2.5204597 0.063631475 65.5 0
3.2332456 2.5352111 0.071717761 9 0
-2.6328552 2.5987914 0.064573906 67.599998 0
3.2221055 2.5953321 0.07221806 7.5 0
-2.6401029 2.6595268 0.06541162 72 0
-2.636723 2.6824899 0.065655962 71.199997 0
3.2332017 2.6744616 0.073241927 7.3333335 0
-2.6338501 2.7392399 0.066330783 73 0
3.2311504 2.7587445 0.07416109 6 0
-2.6748264 2.8098254 0.067715339 52 0
3.2393706 2.8389373 0.075184971 2.5 0
-2.874023 3.0370693 0.072985962 56 0
3.1607826 2.9963424 0.076022685 38.666668 0
3.2325759 2.9855037 0.076808035 37 0
3.3194225 2.9866629 0.077942453 32 0
-2.8808177 3.08283 0.073649153 49 0
-2.8759174 3.0909922 0.073695697 52.666668 0
3.1472957 3.0785758 0.076848768 37.333332 0
-2.8721559 3.155406 0.074478149 43.75 0
3.1533175 3.1643958 0.077977352 35 0
-2.8821347 3.243943 0.075743444 49 0
-2.8763981 3.2356162 0.075568922 45 0
3.1399057 3.23458 0.078687087 33 0
-2.8746409 3.319633 0.076650962 43.400002 0
3.1481924 3.3117101 0.079757497 31 0
-2.8824096 3.40908 0.077924997 39.5 0
-2.8774891 3.4027326 0.077785373 42.5 0
-2.8737335 3.4704261 0.078649268 44 0
-2.8769093 3.5305922 0.079495713 43 0
-2.4035201 3.8389766 0.0790594 80 0
-2.4513669 3.8451366 0.079596937 78.199997 0
-2.3646669 3.852421 0.078902334 79 0
-2.2765553 3.8532822 0.07812196 77 0
-2.1967502 3.8660905 0.077616669 74.5 0
-2.1194661 3.8827403 0.077214435 78.14286 0
-2.0356181 3.8845756 0.076552071 83.666664 0
-1.9638079 3.894886 0.076139025 82.666664 0
-1.8788495 3.9028096 0.075608186 83.75 0
-1.794643 3.9086542 0.075074434 78.333336 0
-1.6927191 3.9172668 0.074486867 78 0
-1.7256757 3.9239254 0.074824281 77.5 0
-1.6393908 3.9311554 0.07434725 79.714287 0
-1.5592529 3.9381351 0.073933378 83 0
-1.4813423 3.9516251 0.073664121 86.14286 0
-1.40321 3.9609525 0.073349968 88.714287 0
-1.3182592 3.9659381 0.072951056 83.25 0
-1.2419646 3.9776051 0.072735809 88 0
-1.16394 3.9821794 0.072418757 83.5 0
-1.0816276 3.9869134 0.072108351 86.14286 0
-0.99753129 3.9830365 0.071672671 87.875 0
-0.91743189 3.9918232 0.071495034 85.571426 0
-0.84006816 3.9949443 0.07125818 88 0
-0.77214754 3.995404 0.071031287 78.800003 0
-0.67458743 3.9961393 0.070740424 84.666664 0
-0.57166481 3.9967082 0.070472814 87 0
-0.85274118 4.0015244 0.071415246 90 0
-0.74195749 4.0031629 0.071066193 88 0
-0.71538305 4.0080376 0.071066193 90 0
-0.60515821 4.0052872 0.07070718 84.85714 0
-0.51702291 4.0121384 0.070612438 85.375 0
-0.43805483 4.013782 0.070477806 89 0
-0.35889241 4.017313 0.07040301 88.75 0
-0.28021547 4.0181441 0.070308268 88.85714 0
-0.20160876 4.0245199 0.070337564 89.75 0
-0.11814708 4.0290828 0.070359372 90.75 0
-0.039180767 4.0317116 0.07037808 91 0
0.039606683 4.0433664 0.070581898 93.125 0
0.1181339 4.0490346 0.07070718 87.428574 0
0.19693121 4.0390153 0.070586257 72.75 0
0.27735311 4.0579138 0.070996389 67 0
0.28044343 4.0920458 0.071595587 86.333336 0
0.35648027 4.1098847 0.072008632 71.428574 0
0.44033846 4.1376786 0.072632559 75.125 0
0.52188712 4.1775117 0.073486276 71.666664 0
0.59342021 4.2140679 0.074283257 56 0
0.65929383 4.2343283 0.074801013 63 0
0.63859779 4.2476096 0.074975535 61 0
0.68806887 4.2573738 0.075278044 60.833332 0
0.76106721 4.2710195 0.075725995 64.166664 0
0.83856833 4.2854295 0.076222137 61.142857 0
0.92196947 4.2951493 0.076680884 58 0
1.0010616 4.3068051 0.077180356 55.333332 0
1.0777463 4.3046851 0.077458762 50.714287 0
1.160207 4.3110466 0.077928476 52.400002 0
1.225141 4.3161292 0.078314766 56.333332 0
1.1729497 4.3261232 0.078239143 55 0
1.2630583 4.3239384 0.078628913 55.666668 0
1.3207439 4.3306808 0.079030313 53 0
1.4040474 4.3394699 0.079612896 54.714287 0
1.4660841 4.3396688 0.079955287 54.666668 0
-3.6843176 -5.1805072 0.1109624 66 0
-3.6297808 -5.1895819 0.11054355 64.5 0
-3.5441642 -5.1819367 0.10958366 18 0
-3.4685864 -5.1871824 0.10892047 66 0
-3.3889356 -5.1847076 0.10811765 61.5 0
-3.3086162 -5.1794696 0.10727994 64.5 0
-3.2362022 -5.1849909 0.10668655 61.5 0
-3.1749802 -5.1770401 0.10600592 57 0
-3.0334556 -5.1849031 0.10485406 66 0
2.7601132 -5.1398182 0.10183479 30 0
2.8185849 -5.1206336 0.10202677 63 0
2.9115348 -5.1293592 0.10295175 72 0
2.9836891 -5.1305685 0.10359748 76.5 0
3.0773201 -5.1356277 0.10450501 81 0
3.1829064 -5.1275053 0.10534272 72 0
3.21945 -5.1282659 0.10569178 69 0
3.3890281 -5.1260166 0.10726249 81 0
3.4483507 -5.1297531 0.10789078 81 0
-3.7664785 -5.0439258 0.10988036 21 0
-3.7179744 -5.0456357 0.10940042 18 0
-3.6320038 -5.0507469 0.10858887 18 0
3.1403296 -5.1185336 0.10481916 75 0
-3.8044603 -5.0253453 0.11001997 18 0
-3.6631031 -5.0381308 0.1087285 21 0
-3.7939956 -4.9302177 0.10858887 15 0
-3.7783759 -4.8309512 0.10705306 56.25 0
-3.7824354 -4.7602987 0.10612808 37.5 0
-3.7835507 -4.685719 0.10512458 27.75 0
2.9940519 -4.6601872 0.096686326 48.666668 0
3.1865277 -4.6888328 0.09895514 30 0
-3.8626275 -4.5691862 0.1044352 6 0
-3.7951469 -4.5761309 0.10377201 55.5 0
3.1804531 -4.6275878 0.098012716 35 0
-3.8457537 -4.4837503 0.10310882 21 0
-3.8061955 -4.5408831 0.10342295 57 0
3.1679668 -4.5328164 0.09652926 40 0
-2.611258 -4.4101257 0.089461036 14 0
3.1705024 -4.4613304 0.095534474 39 0
-3.8720529 -4.3919821 0.1022013 15 0
-2.652113 -4.3739896 0.089286514 57 0
-2.6250639 -4.3809547 0.089146897 54 0
3.1603029 -4.3739028 0.094190642 58 0
3.2376413 -4.335701 0.094452426 78.5 0
3.3184915 -4.3245873 0.095150523 87.5 0
3.1679726 -4.3126712 0.093405277 12 0
3.3135927 -4.3183579 0.095010899 78 0
3.3888555 -4.3003373 0.09556938 65.5 0
3.3800616 -4.2205148 0.094382621 23 0
3.4843793 -4.1687493 0.094836384 28 0
3.3594906 -4.1059575 0.092602469 25 0
3.362576 -4.1524358 0.09326566 22 0
3.3784475 -4.0421824 0.091956735 30 0
3.349272 -3.9242668 0.090054423 28 0
3.1780975 -3.6458113 0.084423117 66.333336 0
3.1726892 -3.5447931 0.083038554 74 0
3.1752493 -3.473722 0.082148477 72 0
-3.3092759 -3.3722446 0.082471341 73 0
3.1767321 -3.4043019 0.081275865 71 0
-3.3467321 -3.3400314 0.082532428 86 0
3.1860335 -3.343308 0.080612667 79.5 0
3.2381172 -3.3292513 0.08106643 88 0
-3.3623278 -3.2254832 0.081328213 10 0
-3.3386805 -3.2547159 0.081386387 18 0
3.2378902 -3.2776921 0.080420688 41 0
-4.1602035 -2.6289568 0.085900746 19 0
-4.1300831 -2.6316273 0.08548189 19 0
-4.0120301 -2.5860591 0.083317786 28.5 0
-3.9695127 -2.5952318 0.082782581 28 0
-3.8930738 -2.5960624 0.081677258 21.5 0
-3.8066959 -2.5812025 0.080281071 20 0
-1.8845081 -1.5383315 0.1274904 18 0
-2.6655476 -1.3675544 0.15700789 1 0
-2.5062878 -1.4034976 0.15054677 8.454545 0
-2.5328851 -1.3368205 0.15009953 9.75 0
2.8670356 -1.0457829 0.15993871 51 0
2.8748696 -0.98151541 0.15920599 52 0
2.8793385 -0.88360023 0.15784526 61 0
2.8855231 -0.9270587 0.15883963 59.75 0
2.9063809 -0.83420986 0.15847328 58.166668 0
-2.3909266 -0.77871519 0.13178195 30 0
2.9396191 -0.76201904 0.15915366 50.5 0
2.9639733 -0.72692466 0.15993871 47 0
2.9676144 -0.71191341 0.15993871 45 0
-3.0084307 -0.43148211 0.15928076 35.57143 0
3.0155888 -0.41362047 0.15952002 5 0
2.9858613 -0.3547619 0.15758359 23 0
-2.3345456 -0.17081258 0.12267549 33.5 0
-2.8654828 -0.11392333 0.15029579 88.5 0
-2.3532658 -0.15079664 0.12358264 100 0
-2.8562412 -0.040576398 0.14970939 100.45454 0
2.9839034 -0.0031247372 0.15637985 9 0
-2.8506041 0.038458098 0.14941335 94.333336 0
-2.6198852 0.052134302 0.13732956 141 0
-2.3943775 0.040121436 0.12550163 33 0
2.9399397 0.012316409 0.15407708 9 0
-2.8550887 0.11973538 0.14976458 93.900002 0
-2.8520055 0.19825363 0.1498331 87.818184 0
-2.8500121 0.28058395 0.15009001 86.090912 0
-2.8485649 0.35964984 0.15047635 82.599998 0
-2.8475592 0.43913156 0.15100352 86.272728 0
-2.8453765 0.488671 0.15130326 78.5 0
3.1541014 3.3529103 0.080350876 33 0
3.1445296 3.39465 0.08076974 31.5 0
3.1491225 3.4718199 0.081816882 30 0
-2.8885059 3.5829697 0.080333427 40 0
3.1437576 3.5384417 0.082619697 26 0
-2.8852279 3.6329479 0.080979168 40.666668 0
-2.8791189 3.6403675 0.081014074 40 0
-2.8885462 3.7199702 0.082209557 40.5 0
-2.8961689 3.8017814 0.083422504 99.666664 0
-2.8347824 3.8019459 0.082780257 73.599998 0
-2.762264 3.8177319 0.082253188 68 0
-2.6771171 3.8153172 0.081356145 64.800003 0
-2.6068685 3.830302 0.080874451 68.5 0
-2.5308433 3.8355343 0.080211267 73.800003 0
2.856771 3.8090153 0.083108358 100 0
2.9008381 3.825875 0.083806455 38 0
-2.4928904 3.8460572 0.080001831 78 0
3.1007261 3.9816084 0.088088118 49.666668 0
3.1599545 3.9835782 0.088754214 52.25 0
3.2393665 3.9871223 0.089670464 53.799999 0
3.3150799 3.9837832 0.090464555 50.5 0
3.4015381 3.9910805 0.091534384 48.799999 0
3.4642076 3.982265 0.092131257 44.5 0
3.0079851 4.0355258 0.087855421 15 0
3.0817142 4.0110712 0.08829172 30 0
3.0582075 4.1352139 0.089775175 21 0
2.4773481 4.1873012 0.084923409 12 0
2.4921756 4.1773224 0.084905952 11 0
2.6685019 4.2298188 0.08729694 7.3333335 0
3.0672836 4.2038035 0.090833962 18 0
1.6883224 4.3147407 0.080874451 16 0
3.0713918 4.2806358 0.091962546 17.333334 0
1.5004711 4.3465986 0.080263615 60.5 0
1.5593983 4.3513961 0.080684967 51.714287 0
1.6464171 4.3420706 0.081057705 26.5 0
1.707648 4.36836 0.081869245 19 0
2.2541177 4.3641477 0.085737862 12 0
3.0650787 4.3540039 0.092942789 19.75 0
1.7973167 4.4416986 0.083637744 36.333332 0
1.8581216 4.4726477 0.084539458 12 0
2.234262 4.4240718 0.086511582 11 0
2.2455854 4.4015083 0.086249799 13 0
3.0789101 4.4474077 0.09441752 22.5 0
3.0797818 4.5237999 0.095525756 22 0
3.0689831 4.5960126 0.096465267 22 0
3.0716488 4.679781 0.097710215 22.666666 0
2.544296 4.7424369 0.093940489 11 0
3.0768328 4.7670732 0.099036597 20.333334 0
3.0659676 4.8089037 0.099548534 17 0
3.1285295 5.3516917 0.10820492 39 0
3.0887518 5.3806939 0.10829568 33.599998 0
3.1538339 5.3669925 0.10865869 12 0
3.2519374 5.3865199 0.109828 42 0
3.3171782 5.3839297 0.11038297 45.599998 0
2.4571538 5.828249 0.11040393 51 0
2.4534826 5.870995 0.11106712 6 0
2.5195444 5.8524828 0.1112207 72.599998 0
2.5814302 5.8639731 0.11183503 17 0
2.3158522 6.2006359 0.11553493 17 0
2.3316531 6.2032571 0.11567455 20 0
3.1005177 6.2322931 0.12150366 52 0
3.0985107 6.2630162 0.12196905 19.666666 0
3.2699378 6.2468452 0.12307438 33 0
3.2984185 6.2454176 0.1232838 42 0
3.4172819 6.2503896 0.12434258 61.333332 0
3.4781539 6.2472558 0.12480798 63 0
3.5273147 6.2548752 0.12534317 60 0
3.0843291 6.350544 0.12323145 21.5 0
3.096422 6.5240293 0.12605292 18 0
3.1003513 6.6275668 0.12771671 28 0
3.0294337 6.7502494 0.12914781 5 0
3.0839097 6.7680244 0.12982263 69.666664 0
3.1361516 6.7686033 0.1302124 64 0
3.3328013 7.5279841 0.14370312 17 0
-1.4648557 -4.0821629 0.22729507 80 0
-1.4239827 -4.1029429 0.2276091 77.5 0
-0.58285254 -4.1051245 0.21729891 69 0
-2.1047678 -4.0381255 0.23865198 22 0
0.53429335 -4.0042644 0.21171641 21.333334 0
0.77676266 -4.0362606 0.21541482 16.333334 0
1.7112122 -4.0080028 0.22839414 57 0
1.80878 -4.0021505 0.23017354 51 0
1.859825 -4.0029912 0.23132494 48 0
-2.1211557 -3.9684999 0.23582584 23 0
0.60555094 -3.9806092 0.21101859 29 0
0.68202239 -3.9898694 0.21213509 21 0
0.72494251 -3.9890993 0.21248402 19 0
1.7438415 -3.9971664 0.22855115 56 0
1.8062893 -3.9967673 0.22985955 51 0
1.8959239 -3.9981651 0.23190065 47 0
1.9557282 -3.9903669 0.23289503 42.666668 0
2.0327303 -3.9875987 0.23456979 43.333332 0
2.0894685 -3.944654 0.23394175 16 0
-2.1187224 -3.8676238 0.23111561 25 0
-1.8654817 -3.8710394 0.22520164 21.5 0
1.0913118 -3.8902848 0.2117513 9 0
2.0280578 -3.8776686 0.2293362 60 0
-2.1284981 -3.7891161 0.2277661 26 0
-1.8744423 -3.7877579 0.22148579 27 0
-1.7861826 -3.8070185 0.22038674 79.5 0
-1.7139704 -3.8082709 0.21886899 81.25 0
-1.6309814 -3.8076727 0.21708955 80.333336 0
-1.5625647 -3.8118031 0.21590328 81.333336 0
-1.4891635 -3.801775 0.21398431 78.333336 0
-1.4127586 -3.8109748 0.21300736 76 0
-0.56931734 -3.8003192 0.20138879 59 0
-0.49440765 -3.7654557 0.19903366 59 0
-0.43404001 -3.7627342 0.1985103 54 0
0.79169559 -3.7929387 0.20306353 56 0
0.84614879 -3.8041167 0.2042411 57.25 0
0.89668041 -3.7961836 0.20442426 42 0
1.1725242 -3.7610483 0.20646536 81.5 0
1.2309221 -3.7749312 0.20808777 1 0
2.0658693 -3.8039093 0.22685893 10.333333 0
-2.1331894 -3.7083378 0.22420727 40 0
-1.8837079 -3.7082658 0.21797928 43.5 0
-0.43391675 -3.7588325 0.19830096 63.5 0
-0.35344407 -3.7471395 0.19725424 50.75 0
-0.29331163 -3.7353473 0.19636452 64 0
0.14545009 -3.7520292 0.19678321 31 0
1.0992546 -3.7300456 0.20379624 76 0
-0.65629131 -3.6077602 0.19217765 48 0
-0.59880942 -3.6131892 0.19194737 75.199997 0
0.92926949 -3.6751337 0.19866732 1 0
0.99205077 -3.6089976 0.19615518 4 0
1.0738544 -3.6437247 0.19908601 30.5 0
1.2396193 -3.6393881 0.20149344 2.5 0
1.3384142 -3.6474917 0.20362179 12.666667 0
1.3991576 -3.6353276 0.20414513 23 0
1.4450842 -3.6424353 0.20536631 1 0
-0.25066414 -3.5402665 0.186002 67 0
-0.20324296 -3.5241909 0.18500763 69 0
-0.15710482 -3.5276575 0.18505996 71 0
0.025826305 -3.5230703 0.18464127 11 0
0.87118137 -3.5629942 0.19222999 8 0
0.94056892 -3.5649486 0.19322437 4 0
-0.20263714 -3.5143199 0.18448427 70.5 0
-0.11030637 -3.5098877 0.18403941 69 0
-0.037528869 -3.5074267 0.18383005 68.75 0
0.007366586 -3.5171654 0.18432724 74 0
0.15323861 -3.4818468 0.1826525 65 0
0.19883434 -3.4879842 0.18309735 66.75 0
0.28112668 -3.4857869 0.18328054 67.599998 0
0.36415052 -3.4876685 0.18377772 70 0
0.42045671 -3.4999857 0.18474594 41 0
-0.6616751 -3.1263509 0.16747507 1 0
3.2520804 -3.1273611 0.23645388 27 0
-0.89636749 -3.0673242 0.16747507 1 0
-0.62595373 -3.0766611 0.16454425 7 0
-3.3660595 -2.9832885 0.23572116 24.333334 0
-3.3588061 -3.0094543 0.23634921 24 0
-2.573272 -3.002816 0.20725042 23.5 0
-0.83475626 -2.9996903 0.16318353 1.25 0
-0.7600497 -3.0042071 0.16240895 1 0
-0.68419892 -2.9996858 0.16124709 2 0
-3.3661904 -2.9213154 0.23358586 27 0
-2.5272484 -2.9185643 0.20233083 62 0
-2.4482555 -2.9263449 0.19995826 6 0
3.2869086 -2.9069886 0.22996421 9 0
-3.3662136 -2.8292677 0.2304527 40.666668 0
-3.3570886 -2.8596458 0.23111561 38 0
-2.5858955 -2.8478713 0.20159812 22.5 0
-3.4588184 -2.7260449 0.23080158 31.666666 0
-3.3726177 -2.7904031 0.22940598 32.666668 0
3.1733315 -2.7486107 0.2200204 41 0
-3.4765782 -2.6894925 0.23035674 26.5 0
-3.3765435 -2.6916015 0.2263007 12 0
-3.3189392 -2.671916 0.2233001 12.333333 0
3.1707616 -2.6748095 0.21740359 54 0
-3.7674 -2.5757313 0.23917533 16 0
-3.7419574 -2.5999184 0.23879853 27.6 0
-3.644618 -2.5971966 0.23454361 17.5 0
-3.572134 -2.6097388 0.23184828 30.799999 0
-3.4808445 -2.5989048 0.22766143 12.333333 0
-3.4214516 -2.5969932 0.22511442 20.666666 0
3.1684427 -2.6026375 0.21489145 46.333332 0
3.1747587 -2.5259988 0.21262358 52 0
3.180687 -2.4503915 0.21042545 57.333332 0
-2.199167 -2.3541951 0.1688358 38 0
3.1787264 -2.3582726 0.20743358 55.25 0
3.1787913 -2.2697227 0.20470339 54.333332 0
3.1820462 -2.1979048 0.20267974 51.333332 0
3.1883993 -2.1178439 0.20060372 56.5 0
3.1913586 -2.0371075 0.19842307 59.666668 0
-3.9517639 -1.9518465 0.23098998 36.200001 0
-3.919198 -1.9600227 0.22965018 12 0
3.1962533 -1.958931 0.1964692 60 0
-3.9730999 -1.8830825 0.23042777 42.714287 0
3.1941078 -1.8784994 0.19420131 57 0
-4.0144825 -1.7764611 0.23006889 1 0
-3.9860845 -1.8392979 0.23006889 1 0
3.1920173 -1.8007174 0.19207297 56 0
-4.0020795 -1.7148881 0.22818479 23 0
-3.9953442 -1.7304159 0.22818479 29.25 0
3.2014809 -1.7404484 0.19097392 54 0
-3.9673855 -1.6393341 0.22497486 34.5 0
3.0538304 -1.6292241 0.18139644 12 0
-3.9731538 -1.5629365 0.22375867 33.714287 0
2.9900551 -1.5559669 0.17665131 12 0
-3.9745204 -1.4803766 0.22227833 33 0
2.9468584 -1.4751269 0.17270868 16.333334 0
-3.9761708 -1.3987223 0.22090261 33.42857 0
2.9190638 -1.3955487 0.16956851 28.25 0
-3.9883907 -1.3391515 0.22049141 30 0
2.8791502 -1.3303541 0.16621901 33 0
2.8922107 -1.3000244 0.16618411 38.333332 0
-4.0221453 -1.2305939 0.22043908 44.200001 0
-3.9941418 -1.2624186 0.21953191 30 0
2.87518 -1.2210338 0.1637069 38 0
2.8842115 -1.2370192 0.16447447 42.666668 0
-4.009665 -1.1508857 0.21862476 45.333332 0
-3.9943006 -1.1846832 0.21834564 25 0
2.8749545 -1.1516876 0.16231126 38.666668 0
2.8818548 -1.1895804 0.16339287 46 0
-4.0112829 -1.0866022 0.21780133 46 0
-3.9951286 -1.063768 0.21667089 48 0
2.8722031 -1.0871135 0.16095053 42.666668 0
2.8802934 -1.1016054 0.16161345 38 0
-4.0097194 -1.0044783 0.216636 46.666668 0
-3.9927511 -1.000376 0.21572883 43 0
2.874352 -1.0314314 0.16004337 50 0
2.8833022 -1.0181999 0.16025271 50 0
-4.0086532 -0.91075844 0.21544099 49.5 0
-3.9979582 -0.93429184 0.21517058 46.666668 0
-4.4223938 -0.82388383 0.23575608 69 0
-4.3214498 -0.82748759 0.23059224 10 0
-4.1994386 -0.82196629 0.22425961 8 0
-4.0076575 -0.8460359 0.21466465 44.833332 0
-3.9950421 -0.83024335 0.21384473 42 0
-4.4324346 -0.76549989 0.2357361 77.285713 0
-4.4280219 -0.7116248 0.23504081 62 0
2.984915 -0.67483348 0.16038355 46.5 0
3.0171204 -0.6327647 0.1615611 30.5 0
3.0699174 -0.61900389 0.16412558 12 0
3.2553868 -0.63868141 0.17386007 57 0
3.319612 -0.59705997 0.17676994 25.4 0
3.3464234 -0.52137882 0.1774974 10.5 0
-3.0278234 -0.43304843 0.16030505 9.5 0
3.2454276 -0.42784488 0.17155728 8 0
3.2921789 -0.4691326 0.17427875 8 0
3.8075356 -0.42102849 0.20076075 71 0
-4.0064678 -0.33537173 0.21070459 41 0
-3.982233 -0.36029914 0.20955318 38 0
-3.6144266 -0.32512251 0.19018888 12 0
-3.5390501 -0.33765462 0.18631603 19 0
-3.4605141 -0.34052667 0.18223381 22 0
-3.3986106 -0.34728456 0.17904133 30 0
-3.3198407 -0.36098853 0.17501146 18.666666 0
-3.2529035 -0.37549603 0.17160961 9 0
-3.1482944 -0.38411763 0.16621901 15.666667 0
-3.0734239 -0.39532059 0.16239849 7 0
3.1187594 -0.39509702 0.16475362 43 0
3.7182164 -0.3826896 0.1958935 42.5 0
3.814038 -0.34239987 0.20069097 95 0
-3.9892526 -0.31291389 0.2097102 38 0
3.8219147 -0.27332708 0.20081307 91.5 0
3.8203259 -0.19271639 0.20047289 96.75 0
3.8185215 -0.11302208 0.20021121 76.75 0
3.7971752 -0.0432836 0.19901621 75.333336 0
3.8083327 0.055660073 0.19960935 80 0
3.8156633 0.12454547 0.20008039 99 0
3.8197157 0.20451173 0.20047289 99.75 0
3.8181286 0.28407663 0.20065609 95.5 0
3.2325196 0.35116392 0.17040588 30 0
3.8183289 0.36432433 0.20102243 89.5 0
3.8086102 0.4635964 0.20107475 91 0
3.2722371 0.54582304 0.17386007 37 0
3.8068666 0.52328634 0.20138878 76.75 0
3.2832108 0.56474888 0.17459276 67 0
3.7958705 0.57203996 0.20117943 57 0
-3.8298585 0.69909948 0.20403174 65 0
3.8127882 0.6970337 0.20313333 78 0
-3.827682 0.76089025 0.20452893 64.5 0
3.8072846 0.75781631 0.20344733 82.666664 0
-3.8231392 0.84337759 0.20518313 54.375 0
3.8056774 0.82977629 0.20413643 82.25 0
-3.8103433 0.88879752 0.2050523 45 0
3.8064411 0.91367561 0.20515697 83.5 0
-4.1992359 0.98878866 0.22609136 24 0
-3.6075904 0.98963237 0.19605052 11 0
-3.5831213 0.99570793 0.19489913 17 0
-3.4680378 0.9819665 0.18889792 30.666666 0
-3.3934467 0.99436647 0.18532163 41.25 0
-3.3076801 1.0113137 0.18127082 43.200001 0
-3.2754648 1.0289806 0.17993104 63 0
