# .PCD v0.7 - Point Cloud Data file format
VERSION 0.7
FIELDS x y z intensity ring
SIZE 4 4 4 4 2
TYPE F F F F U
COUNT 1 1 1 1 1
WIDTH 1186
HEIGHT 1
VIEWPOINT 0 0 0 1 0 0 0
POINTS 1186
DATA ascii
2.6710839 -1.1661383 0.050873764 28 0
2.7706466 -1.1335014 0.052252505 1 0
2.8459332 -1.1817348 0.053788319 1 0
3.7267113 -1.1743832 0.068204008 65 0
4.3674197 -1.1303048 0.078745253 99 0
-3.2001076 -1.0987626 0.059058942 1 0
-3.1596854 -1.099402 0.058395751 1 0
-3.1023257 -1.0752877 0.057313707 1 0
-2.0194054 -1.0875483 0.040035821 46.5 0
-1.9949273 -1.0782034 0.039582059 36 0
1.099527 -1.0733106 0.026821857 57.285713 0
1.1422404 -1.0474042 0.027051231 6 0
3.4954286 -1.0420326 0.063666381 32 0
3.5473247 -1.0777596 0.064713523 1 0
4.2528481 -1.0532613 0.076476447 10 0
4.3597083 -1.1039855 0.078500926 69 0
-3.1313894 -0.99872977 0.057371881 1 0
-3.1178758 -1.0077415 0.057197351 2 0
-2.7914064 -1.0071702 0.051798742 1 0
-2.6416774 -0.96253651 0.049076166 13 0
1.1129485 -1.0363717 0.026545111 33.5 0
1.1326039 -1.0223305 0.026632372 16.5 0
3.5130906 -1.0173452 0.063840896 32 0
-3.1381328 -0.9243409 0.057104275 1.3333334 0
-3.1023493 -0.92129344 0.056489952 2.2 0
-2.5262921 -0.93447351 0.047016785 10.666667 0
-3.104192 -0.70619947 0.055568468 2 0
-2.3729262 -0.6623162 0.043002732 6 0
-2.5960159 -0.57342255 0.046405949 6 0
-2.3285615 -0.58791953 0.041920681 31 0
-2.3011267 -0.59864366 0.041504998 26.454546 0
2.6045527 -0.59065056 0.046618871 1 0
2.6971509 -0.56444681 0.048098832 1 0
-2.571929 -0.53287625 0.045847472 11.25 0
-2.508316 -0.48938534 0.044608355 4 0
-2.3341668 -0.55089766 0.041862506 5 0
-2.3151515 -0.55881149 0.041571636 10 0
2.0242922 -0.55758297 0.036650054 10 0
-2.4027865 -0.42237875 0.042583872 28 0
-2.3842633 -0.43800578 0.042314608 13.714286 0
-3.0328054 -0.35519966 0.053299651 6 0
-2.8840234 -0.35309228 0.050716694 7 0
-2.3746407 -0.34673533 0.04189159 17.5 0
-2.2033641 -0.32811573 0.038883962 13 0
-2.1452403 -0.3430562 0.037921585 25 0
-3.1221638 -0.26656613 0.054695841 34 0
-3.1048255 -0.25799087 0.054381698 42 0
-2.7097809 -0.31113663 0.047610167 6 0
-2.5981398 -0.26683223 0.045590047 11 0
-2.4758205 -0.29741547 0.043526303 8 0
-2.3872631 -0.30857649 0.04201667 9.75 0
1.7514536 -0.25352213 0.030890759 9 0
1.7639701 -0.26459259 0.031135093 8 0
1.868235 -0.24098369 0.032880332 1 0
2.5753126 -0.27777025 0.045213372 6 0
2.7585382 -0.26853284 0.048378069 1 0
-2.6310768 -0.23550972 0.046109259 11 0
-2.3798089 -0.17562962 0.041653078 19 0
1.7559614 -0.23585507 0.030925665 2 0
1.9290086 -0.23856139 0.033927478 1 0
-3.1434059 -0.083684474 0.054887816 36.5 0
-2.4812768 -0.10790138 0.043351781 1 0
-2.3564842 -0.13058406 0.04119641 26.75 0
-3.1545458 -0.038612753 0.055068161 18 0
-2.4924307 -0.077021375 0.043526303 8 0
-3.1605785 0.039712887 0.055174042 8.1999998 0
-3.159246 0.11792571 0.05518451 5.5555553 0
-3.1630938 0.19710219 0.055320639 4.4000001 0
-3.1702025 0.28093985 0.055554498 5.8000002 0
-3.1520329 0.36267906 0.055383466 8 0
-3.155201 0.44271392 0.055615 6.3333335 0
-3.1542943 0.514346 0.055786621 18 0
-3.2227693 0.60681027 0.057243891 1.5 0
-3.182668 0.60074568 0.056535829 2.4285715 0
-2.6320491 0.61782557 0.047191311 1 0
-3.1760831 0.65535384 0.056606881 4 0
-3.1058934 0.66131067 0.055428844 3 0
-2.9716167 0.6846447 0.053229839 37 0
-2.9587703 0.6915347 0.053037863 35 0
-1.7812417 0.71044505 0.033473719 33 0
-1.7442654 0.71654391 0.032915238 59.666668 0
-2.9773574 0.76170433 0.053645205 63.099998 0
-1.7024403 0.73381138 0.032360639 82.444443 0
-1.6699028 0.7641843 0.032056578 94.599998 0
0.74075758 0.79938513 0.019023122 73 0
-2.9765711 0.84068936 0.053989992 64.111115 0
-1.687897 0.82893544 0.032824486 72.400002 0
-1.2485602 0.85053378 0.026370585 7.625 0
-0.15727828 0.8697595 0.015427927 5 0
0.63698411 0.81809902 0.018098146 15 0
0.68086421 0.82512957 0.021444827 44.714287 0
0.7528708 0.82136369 0.043912813 77.541664 0
0.82837051 0.81522048 0.04222415 45.23077 0
-2.9804769 0.91771752 0.054435994 59.222221 0
-1.8572351 0.94467556 0.036370814 53 0
-1.187845 0.94496399 0.079550654 2 0
-0.9220323 0.92180222 0.022757938 9.333333 0
-0.66205227 0.93578345 0.040074613 56.807693 0
-0.59978759 0.93427312 0.03829854 70.930229 0
-0.52069908 0.93069768 0.038732089 70.5 0
-0.44244605 0.93087816 0.03667777 58.880001 0
-0.37088057 0.92183775 0.027259607 1.7142857 0
-0.25775653 0.9407528 0.017026568 23.200001 0
-0.15809293 0.90211266 0.015986405 4 0
0.68243694 0.92536354 0.02007027 1 0
0.78008133 0.94362712 0.064163886 50 0
-2.9686673 1.0337991 0.054870363 2 0
-2.9134879 1.0279925 0.053927936 11 0
-2.8420506 1.0273294 0.052749898 10.75 0
-2.7650616 1.0239034 0.051467147 9.5 0
-2.6726677 1.0190071 0.049927846 8.6000004 0
-2.6145453 1.0120152 0.04893655 9 0
-1.84945 1.0024981 0.036719862 18 0
-1.8126985 0.97375023 0.035917051 1 0
-1.087749 1.0385677 0.078817956 1 0
-0.97004831 0.96987891 0.023944702 1 0
-0.72838253 0.99338859 0.021501366 4 0
-0.41639921 1.0006205 0.056801964 17.333334 0
-0.36900675 0.9676351 0.042115469 1 0
-0.29861963 0.97018093 0.035731558 1 0
0.74346185 1.0244462 0.022094745 9.5 0
0.82051903 1.0195079 0.068586275 60.5 0
-3.3071601 1.0941653 0.060804185 1 0
-1.445551 1.1184583 0.031902999 1 0
-1.4177519 1.1096747 0.031425968 3 0
-1.234982 1.1088644 0.028970996 3 0
-1.1549028 1.0814474 0.027619015 4.3333335 0
-1.0781668 1.0603727 0.067345232 1.1111112 0
-1.0228728 1.0470792 0.025550324 1 0
-0.41467828 1.0494972 0.059139632 2 0
-0.3659226 1.0832047 0.059924677 11.5 0
-0.28204814 1.0961218 0.019756125 9 0
-0.17107968 1.1154076 0.059139632 100 0
-0.11237335 1.1164365 0.05882562 100 0
0.09128733 1.1127295 0.058511604 100 0
0.74339896 1.0649823 0.022670677 69.75 0
0.82352066 1.0623181 0.070444211 1 0
-3.2956598 1.1283565 0.060804185 1 0
-1.4922457 1.1495991 0.032880332 1 0
-1.4220575 1.1337885 0.031745926 1.5 0
-1.0840893 1.1214318 0.027225753 3 0
-0.35237297 1.1668428 0.063891739 32.900002 0
-0.28649896 1.1747417 0.045281749 39.5 0
-0.18885732 1.147673 0.05393073 74.666664 0
-0.11356173 1.1371224 0.051116575 82.714287 0
-0.038849574 1.1389538 0.040371105 113.96296 0
0.039803304 1.1437634 0.039763328 109.03846 0
0.12062304 1.1469495 0.040094815 100 0
0.17771511 1.1520607 0.038701434 98 0
0.79353666 1.1821264 0.024852226 71.333336 0
0.83623791 1.1702104 0.075389951 78.333336 0
1.6512392 1.1939801 0.035568006 32 0
-1.5540361 1.2552929 0.034869909 6 0
-1.373172 1.2273263 0.032147333 5 0
-0.91893601 1.2388068 0.026923247 7.6666665 0
-0.27295408 1.2201257 0.065524623 39 0
-0.20183899 1.2267129 0.021710794 1 0
-0.13364875 1.2322277 0.021636622 8.125 0
0.7952438 1.2346981 0.056506056 64 0
0.8016181 1.2700276 0.05235875 65 0
1.5864512 1.2325567 0.035067704 8.333333 0
1.6323591 1.222201 0.035595931 29.6 0
1.9529333 1.2774775 0.040733919 49 0
2.0174873 1.2314787 0.041257489 9 0
2.1451321 1.2792623 0.043596111 24 0
2.915977 1.2496421 0.055376489 23.75 0
3.0013871 1.2401479 0.056685418 1 0
3.1097064 1.2658826 0.058605183 33 0
3.1409204 1.2498887 0.059006587 35 0
3.4747849 1.2695286 0.064573906 6 0
3.5321934 1.269581 0.065516338 11 0
-2.5479274 1.3304613 0.050173171 34.285713 0
-1.6327004 1.3297254 0.036754768 18.5 0
-1.5336277 1.3568393 0.035742529 9 0
-1.511349 1.3427818 0.035288766 7 0
-1.2923046 1.3429024 0.032531288 6 0
-1.2311153 1.3563029 0.031972811 1 0
-0.99418837 1.3265432 0.02893609 10 0
-0.28444597 1.3034945 0.069920845 9 0
0.79270953 1.316004 0.053344578 64.5 0
0.80309796 1.3105971 0.026830167 70.666664 0
1.9150761 1.3544458 0.040943347 8 0
1.9376409 1.3089685 0.040818688 49.714287 0
2.0420218 1.3054249 0.042304631 21 0
2.1296618 1.3190114 0.043727007 24.5 0
2.1894069 1.2829406 0.044294208 23.5 0
2.259901 1.2847823 0.045376256 22.666666 0
2.3430748 1.2917994 0.046702638 21 0
2.4284141 1.2980281 0.04806393 19.666666 0
2.4949882 1.3004692 0.049111072 20 0
2.9084611 1.3187249 0.055742987 29.25 0
3.6217484 1.2803941 0.067052148 9 0
-2.547261 1.4159925 0.050871272 42.857143 0
-1.6468145 1.3773592 0.037474677 37.625 0
-1.576815 1.3687142 0.036446441 30 0
-1.2331417 1.3823352 0.032334946 1.625 0
-1.0330358 1.3698893 0.02994833 10 0
-0.26977763 1.4031826 0.074892759 68.5 0
0.24177369 1.3628205 0.072537638 1 0
0.79053295 1.4050983 0.028143251 51.57143 0
2.8692164 1.4292769 0.055952415 17 0
2.8937867 1.3857121 0.05600477 21.25 0
-2.5379775 1.4807825 0.051290683 42.111111 0
-0.26126316 1.4491283 0.059887473 48.333332 0
0.25841963 1.4610971 0.025899371 1 0
0.7889362 1.5078136 0.029703995 61 0
2.0950134 1.498224 0.044957399 12 0
2.8698256 1.476791 0.056336369 63 0
2.9078274 1.4771402 0.056929749 74 0
-2.5326183 1.5542283 0.051868547 41.875 0
-1.5288365 1.5981593 0.038604725 12 0
-1.190717 1.5715575 0.034416147 9 0
0.78499115 1.5596813 0.030478884 58 0
-2.5870938 1.6435641 0.053500354 24 0
-2.3488576 1.6581799 0.050187305 11 0
-2.280144 1.6716033 0.049350418 25.142857 0
-2.2166319 1.6693225 0.048436251 17.666666 0
-1.5806429 1.6648026 0.040070727 25.5 0
-1.4842176 1.6180375 0.038325485 3 0
-1.4072233 1.6171144 0.037417959 2 0
-1.2487184 1.6379898 0.035951961 10 0
0.7807436 1.645352 0.031789556 47.25 0
2.1052897 1.677025 0.046981879 10 0
-2.6249397 1.6929549 0.054521319 1 0
-1.5828521 1.697849 0.040517505 26.200001 0
-1.4569317 1.7088584 0.039198108 37.142857 0
-1.3961263 1.7129081 0.03857331 38 0
-1.3310453 1.7093951 0.037816871 28.142857 0
2.1127384 1.7282122 0.04764507 44 0
0.3832348 1.8075061 0.032252047 1.5 0
0.43282109 1.8280854 0.032793075 1 0
0.55939364 1.8071117 0.033019952 3 0
0.60619813 1.8241678 0.033555161 1.6666666 0
0.67159176 1.8282256 0.03399729 1 0
0.76320446 1.8373857 0.034730289 1 0
0.84402913 1.839278 0.035323672 1 0
2.1004095 1.8020432 0.048308261 41.200001 0
0.36168665 1.8486573 0.032880332 1 0
0.45598447 1.8606427 0.033438813 1 0
0.59447968 1.8536174 0.033979837 1.25 0
0.68254465 1.8581654 0.034555767 1 0
0.75657248 1.8595858 0.035044432 1 0
0.82268625 1.8565428 0.035445839 1 0
1.9726722 1.8778929 0.047540355 32 0
2.03022 1.8830147 0.048334438 35.75 0
2.1028283 1.8812848 0.049250692 41 0
-1.3764861 -2.0804324 0.13073523 83 0
-1.0641512 -2.0804288 0.12246615 7 0
-0.88905048 -2.1243024 0.12068672 1 0
-0.82929057 -2.0916073 0.11792339 1 0
-0.73722303 -2.0971315 0.11649985 1 0
-0.67819804 -2.0888004 0.11510422 1 0
-0.62311965 -2.0859137 0.11409239 1 0
-0.55625153 -2.0861509 0.11315035 1 0
-1.3878087 -2.0508862 0.12978154 57.222221 0
-1.3223169 -2.0726752 0.12885113 44.900002 0
-1.2241918 -2.0664065 0.12587546 35.57143 0
-1.1591904 -2.0631354 0.12402671 25.272728 0
-1.0797762 -2.0616045 0.12197134 12 0
-0.99730182 -2.0566442 0.11979225 7.7272725 0
-0.93530661 -2.0498643 0.11808489 3 0
-0.83119994 -2.0566387 0.11625561 1 0
-0.76192504 -2.0560858 0.11491814 1 0
-0.66103923 -2.0763135 0.11419707 1 0
-0.59312713 -2.0612879 0.11241762 1 0
-0.51539189 -2.0460968 0.11058589 1.4166666 0
-0.43883577 -2.0327754 0.10899339 1.6428572 0
-0.38364053 -2.0194473 0.10772835 2.2 0
-0.17169431 -2.017421 0.10611115 37 0
-0.12374549 -2.0147426 0.1057934 6.7857141 0
-0.038981684 -2.0095801 0.10534482 13.714286 0
0.012425236 -2.0066981 0.10516912 26.25 0
0.11719874 -2.0062454 0.10532986 40 0
0.19521056 -2.0036385 0.1055093 30 0
0.26491439 -2.0047884 0.10598032 14 0
-1.3926753 -1.9564868 0.12586218 50.111111 0
-0.18976529 -1.9594599 0.10317162 10.333333 0
-0.090084895 -1.9992253 0.10488127 7 0
-0.047098067 -1.9985347 0.10477659 12 0
0.030261805 -1.9930302 0.10446259 19.333334 0
0.12630078 -1.9931978 0.10467192 49.285713 0
0.20428453 -1.9930911 0.10500921 29 0
0.28851938 -1.993794 0.10558541 11 0
0.36019871 -1.9842757 0.10569771 6.7333331 0
0.43926027 -1.9763324 0.10610943 5.3333335 0
0.51960033 -1.9695543 0.10675838 2.6666667 0
0.59852177 -1.9746649 0.1081422 2.1538463 0
0.67914456 -1.9779152 0.10960545 2.0666666 0
0.72344482 -1.9747698 0.11021954 1 0
-1.3974175 -1.8738009 0.1225054 51.875 0
-0.19282925 -1.8644819 0.098234601 10 0
-2.4392314 -1.8059775 0.15906207 67.875 0
-1.4073613 -1.7831167 0.11905384 34.599998 0
-0.59512579 -1.8079578 0.099752344 1 0
-0.19753987 -1.7924702 0.12603086 11.25 0
-2.4373319 -1.7174041 0.15626472 59.799999 0
-1.4058074 -1.7160429 0.1162606 54.42857 0
-0.20106448 -1.7211305 0.12112537 11.666667 0
0.68604392 -1.6895226 0.095565468 1 0
-2.4463935 -1.6343865 0.15419336 60.666668 0
-1.4094565 -1.6446425 0.11351669 54 0
-0.20500748 -1.636356 0.11115133 13.857142 0
0.67492819 -1.6724666 0.094518751 1 0
-2.4485507 -1.5580268 0.1521014 65.125 0
-1.4581518 -1.5396942 0.11113541 65.25 0
-1.4154791 -1.5587355 0.11035037 60.333332 0
-0.27884486 -1.5733781 0.13979781 77 0
-0.21038553 -1.5555077 0.10974948 16.25 0
0.68005055 -1.5477996 0.11825984 1 0
-2.6510825 -1.4791975 0.15910132 37.5 0
-2.5863667 -1.4699514 0.15590884 32.25 0
-2.5323694 -1.4746958 0.15357989 33 0
-2.4522989 -1.4929258 0.15046589 55.333332 0
-1.7748189 -1.4405464 0.11979702 52.5 0
-1.4611787 -1.4757438 0.10884269 55.153847 0
-0.24941574 -1.4891418 0.13209905 59.5 0
-0.22242212 -1.4822302 0.13113204 57.285713 0
0.68938047 -1.4768105 0.11123436 3.7931035 0
0.7595073 -1.4728904 0.11788926 4.21875 0
0.83759439 -1.467019 0.11735284 3.7272727 0
0.9231239 -1.4683686 0.12234948 1.8709677 0
0.97932595 -1.4753523 0.14441819 5.1666665 0
1.0739102 -1.4940178 0.096431382 52.545456 0
1.156415 -1.4923973 0.098949857 54.5 0
1.238512 -1.4810946 0.10119159 62.75 0
1.2830995 -1.4807284 0.10268316 64 0
1.3978941 -1.468641 0.10626292 58.599998 0
1.4803358 -1.4688258 0.10929493 65.666664 0
1.5673116 -1.4685209 0.11256418 54.200001 0
1.6452789 -1.4578305 0.1152089 22 0
1.7227719 -1.445509 0.11786059 10.5 0
1.7753155 -1.4510103 0.12016336 6 0
1.8540637 -1.4516826 0.12340819 1 0
-2.369684 -1.4134532 0.14460427 36 0
-1.8094071 -1.4336268 0.1209858 47.857143 0
-1.7130951 -1.4282771 0.11689237 51.125 0
-1.6458102 -1.4275931 0.11418211 51.857143 0
-1.5679743 -1.4221295 0.11094177 55.799999 0
-1.4907672 -1.4213938 0.10795164 56.111111 0
0.94618219 -1.4061631 0.11032819 1 0
0.9745602 -1.4265115 0.090541214 1 0
1.7890054 -1.4195734 0.11969233 1.25 0
1.1802421 -1.2803605 0.15234824 17 0
1.1137036 -1.2394836 0.11642923 50 0
1.1291261 -1.2568324 0.11842804 49 0
2.6696625 -1.1580331 0.15250699 9 0
-2.0298803 -1.0875003 0.12068672 1 0
-1.9775165 -1.0541217 0.1174419 7 0
-2.5451868 -0.97140366 0.14277251 10 0
-2.509558 -0.93085378 0.14027782 22.166666 0
-2.8977365 -0.84296721 0.15815927 13 0
-2.6083269 -0.83342689 0.1435052 27 0
4.9304886 -0.8321622 0.087279484 48 0
-2.4121914 -0.72415155 0.1319913 1 0
4.9220824 -0.79103339 0.087017693 24 0
-2.4126647 -0.71558046 0.13188663 38 0
-2.3891275 -0.70361173 0.13052589 53 0
-2.9890947 -0.58508325 0.15962468 13.5 0
2.0542634 -0.5669958 0.11168494 3 0
2.8337753 -0.62563884 0.1520883 1 0
-3.0084093 -0.4070864 0.15910132 19.333334 0
-2.3977504 -0.40468735 0.12743807 10 0
4.9299984 -0.42791411 0.086377777 44 0
-3.0174267 -0.34835157 0.15918855 17.833334 0
-2.7707922 -0.39039594 0.14664535 9 0
-2.4029982 -0.35871011 0.1273334 18.25 0
-2.3930299 -0.37766191 0.12696704 26 0
4.8461299 -0.35675418 0.084818698 91 0
-3.0161967 -0.27343795 0.15872748 12.857142 0
-2.8695991 -0.27806997 0.15109393 3.5 0
1.7465523 -0.25828737 0.092529982 7.25 0
1.7957312 -0.27311388 0.13503759 6.125 0
4.8383665 -0.2928195 0.08460927 91.666664 0
-3.0407443 -0.23504035 0.15983403 31 0
-3.0263734 -0.18191096 0.15889198 23 0
1.8254365 -0.22669496 0.096402846 2.3333333 0
1.8515378 -0.21030141 0.097658902 2 0
1.9916092 -0.2156546 0.10498594 1 0
2.092011 -0.21581928 0.11021954 1 0
4.6001768 -0.19441053 0.080368333 25.5 0
4.7013788 -0.23569368 0.082165927 8 0
-3.0219133 -0.11450341 0.15849075 15.333333 0
-2.3317437 -0.11934549 0.12236147 1 0
-2.2995563 -0.12292954 0.12068672 1 0
4.6235685 -0.1234531 0.080734834 94.5 0
-3.0408652 -0.076441571 0.15941535 7 0
4.6117611 -0.038368139 0.08050213 84.666664 0
4.6218052 0.033042546 0.080676652 91.333336 0
4.6247473 0.11666702 0.080752283 69.5 0
4.608233 0.20040202 0.080513768 22.666666 0
4.6071796 0.27290329 0.080560304 18 0
4.6128912 0.35741377 0.080761015 48.5 0
4.7855477 0.44563439 0.083893716 99.5 0
-2.1040668 0.49291697 0.11325502 3.5 0
4.7778349 0.52065748 0.083893724 78.5 0
4.8161087 0.51214373 0.084539458 68 0
4.9067664 0.54777968 0.086179987 11 0
-2.5356188 0.62597078 0.13687599 27 0
4.7580318 0.60673267 0.083725013 59.666668 0
-2.9533997 0.71122932 0.15920599 30 0
-1.7879626 0.70886421 0.10079906 8.333333 0
-1.7317485 0.71525502 0.098195344 15 0
4.7654219 0.6697073 0.083998434 51.5 0
-2.9496636 0.74309379 0.15941535 42 0
-1.6961836 0.73715681 0.096926205 78.833336 0
-1.665145 0.76474637 0.10136975 89.333336 0
-1.6895996 0.84472197 0.098998711 62.200001 0
-1.6742281 0.81243724 0.097528063 76 0
0.47231495 0.87640786 0.15768597 41 0
0.50807244 0.87234235 0.14669271 35.454544 0
0.76730901 0.83963507 0.11757318 71.650002 0
0.82522279 0.81927365 0.12342714 57 0
0.8846311 0.83627665 0.10650432 20 0
1.5900042 0.83760524 0.15722896 1 0
1.6092719 0.82641393 0.15827483 1 0
5.4984512 0.84566993 0.097105183 39 0
-1.1959909 0.95190233 0.080108911 2.3333333 0
-0.66226816 0.9334144 0.11686873 47.833332 0
-0.59977669 0.92896634 0.11707955 57.68182 0
-0.52156556 0.92888725 0.11189043 56.76923 0
-0.44283992 0.92990446 0.11174181 48.080002 0
0.39119676 0.92618448 0.14132605 62.125 0
0.43768984 0.91119319 0.12890309 47.095238 0
0.51639217 0.91525888 0.10561842 67.833336 0
0.60161388 0.91935921 0.1152694 41.9375 0
0.64884323 0.93182677 0.13941854 51 0
0.75665319 0.88655382 0.10197222 57 0
5.4988341 0.9191978 0.097314611 42.5 0
-2.835732 1.0266318 0.15805461 40.25 0
-2.6806912 1.0182128 0.15028271 13 0
-2.618279 1.0150377 0.14716873 7 0
-1.7838916 1.0043508 0.10728873 1 0
-1.226781 0.96981817 0.081958115 2 0
-1.1803775 1.0043496 0.081231229 2.8888888 0
-0.72831309 0.98966712 0.15087426 1 0
-0.71142089 0.9656527 0.10493552 1 0
-0.42046905 0.99744034 0.11372723 14.1 0
0.38639122 0.97643912 0.12893778 26.5 0
0.42491814 0.96337968 0.092123613 40.75 0
0.67106307 0.96973968 0.12391716 50.5 0
0.83033669 1.0068159 0.1198196 50.125 0
5.4989257 0.99243885 0.097535692 46.333332 0
-2.8098409 1.0421698 0.15706022 20 0
-1.1518635 1.0770873 0.11167465 4.6086955 0
-1.1050336 1.0991205 0.11835611 4.6666665 0
-0.42302784 1.0764025 0.11934952 17 0
-0.37974739 1.1142249 0.14453706 71 0
-0.1687322 1.1153717 0.12852398 97.5 0
-0.12638873 1.1139975 0.13437678 97.666664 0
-0.040455621 1.1158352 0.13713349 100 0
0.036168758 1.1155931 0.13706239 100 0
0.11565769 1.1116064 0.1372249 100 0
0.8203873 1.0517867 0.11670154 17.5 0
5.497057 1.0814694 0.097791649 46.333332 0
-1.1432364 1.1390665 0.1411923 1.5 0
-1.0738226 1.1470444 0.082352184 7.5882354 0
-1.0198702 1.1787465 0.081692412 6.9230771 0
-0.42152825 1.1565775 0.12937266 55.599998 0
-0.35858041 1.1626266 0.12864776 65.130432 0
-0.2922498 1.1666081 0.12622088 65.388885 0
-0.18611719 1.1444262 0.11508065 85.166664 0
-0.11865688 1.1287656 0.10504814 94.571426 0
-0.038115345 1.1269733 0.11057799 100 0
0.040831201 1.1321967 0.11649372 100 0
0.12057812 1.131415 0.11883482 99.851852 0
0.17801218 1.136608 0.12084812 92.300003 0
0.78922325 1.1474689 0.12184373 55 0
0.8377654 1.165079 0.12555407 79.714287 0
1.5643634 1.1796898 0.10268316 29 0
1.6301634 1.1838858 0.1055878 50.5 0
1.9724684 1.1884608 0.12068672 1 0
5.4909382 1.1551375 0.097942904 45 0
-0.99998873 1.2023555 0.081958115 1.5 0
-0.41327128 1.210512 0.11190797 1 0
-0.27429381 1.2296401 0.13246948 18.5 0
1.5931089 1.2145032 0.10498594 1 0
1.6166701 1.2459852 0.10697471 17.75 0
1.9518203 1.2393799 0.1211752 29 0
2.1959248 1.2775457 0.13314268 23 0
5.4924521 1.22969 0.09824542 73.666664 0
-2.5507653 1.3292971 0.15074502 46.5 0
-1.0838922 1.3143981 0.08928515 1 0
-0.28160214 1.2926283 0.11574282 10 0
0.23712544 1.3339123 0.1185318 2 0
0.79976183 1.342714 0.081905782 60.5 0
1.9319718 1.3208374 0.12265456 49.200001 0
2.1569147 1.2847586 0.1315726 4 0
2.1754367 1.2809193 0.13230531 22 0
2.2723093 1.2902231 0.13694577 21.666666 0
2.3605542 1.291896 0.14102797 21.333334 0
2.459435 1.3049064 0.14591265 19.5 0
2.4997141 1.3012686 0.14769208 21 0
5.4765663 1.3158507 0.098315217 49.333332 0
-2.5498035 1.3844373 0.15205839 44.714287 0
-0.27364498 1.4198321 0.12651527 63 0
0.78838092 1.3869215 0.083611928 43.599998 0
0.80202979 1.4210529 0.085516959 65 0
5.4658012 1.4033798 0.098501384 53 0
-2.5424948 1.4807881 0.15420267 42.599998 0
-0.27197391 1.4469935 0.12881619 54.5 0
0.78942287 1.4973135 0.088709459 52.5 0
0.81422347 1.4964974 0.08928515 1 0
2.1206193 1.4981519 0.1360735 47 0
5.4673901 1.4798298 0.098867878 42 0
-2.5355637 1.5577798 0.15596117 40.5 0
0.78390652 1.5556095 0.091294847 52.599998 0
4.5123653 1.5687239 0.083387598 8 0
4.5962062 1.5709448 0.084783792 8 0
4.6742306 1.5712377 0.086075269 6 0
4.8229036 1.5931562 0.088658229 7 0
5.4569402 1.5534648 0.099036597 36 0
-2.5638077 1.6554292 0.15993871 26 0
-2.5122499 1.6533924 0.15761845 23.5 0
-2.4444642 1.6598151 0.15485165 23.6 0
-2.3587132 1.6607832 0.15118551 24.375 0
-2.2747335 1.6646503 0.14772697 20.5 0
-2.2292774 1.6723561 0.14605223 5 0
0.77893573 1.6288382 0.094623417 50 0
5.4576898 1.645703 0.09950199 36 0
-2.2560625 1.7087241 0.14832011 1 0
-1.3825983 1.7117499 0.11531854 14.714286 0
-1.3208882 1.7207513 0.11369116 35.916668 0
0.78862137 1.6927488 0.097868249 42 0
2.1105757 1.7248149 0.142851 46.75 0
5.4477825 1.7208431 0.099723056 37 0
0.3726317 1.8114772 0.096926205 1.75 0
0.43135577 1.8178706 0.097920582 1 0
0.5506649 1.8261575 0.099961683 1.5 0
0.59931189 1.8267294 0.10076416 2.3333333 0
0.70065624 1.8353691 0.10296229 1.3333334 0
0.76219893 1.8237091 0.10359031 1.3333334 0
0.81718713 1.8201939 0.10456725 1 0
2.1019776 1.7919917 0.14476128 42.5 0
5.4360271 1.7641746 0.099757954 25 0
0.36665699 1.8433083 0.098496281 1 0
0.43935409 1.8518633 0.099752344 1 0
0.61952478 1.8461441 0.10205512 1.5 0
0.68037009 1.8490262 0.10325885 1 0
0.75425959 1.849277 0.10467193 3 0
0.8214879 1.8510602 0.10613734 1 0
1.992346 1.8755252 0.14340053 34 0
2.0412626 1.8815788 0.14549397 33.666668 0
2.1012554 1.8680974 0.14735191 44 0
-1.3874351 -2.0938401 0.21975698 71.428574 0
-1.3286341 -2.0891395 0.21661107 55 0
-1.2374406 -2.0851448 0.21213707 66.111115 0
-1.1629993 -2.0847666 0.20886001 72.599998 0
-1.0906914 -2.0849562 0.20586187 75 0
-1.0242776 -2.0806901 0.20289856 77 0
-1.3949581 -2.0285532 0.21539088 48.5 0
-1.3292829 -2.0777428 0.21579762 65 0
-1.1607772 -2.0756216 0.2080698 72.666664 0
-1.0795982 -2.0714133 0.20437051 75.555557 0
-0.99882513 -2.0678065 0.20091777 75.63636 0
-0.93051028 -2.0660887 0.19825026 62.111111 0
-0.82813895 -2.0653863 0.19468656 89.444443 0
-0.76115936 -2.0597141 0.1921203 89.416664 0
-0.68326652 -2.0520678 0.18923689 63.625 0
-0.60266262 -2.0487812 0.18684945 94.64286 0
-0.5203948 -2.0427296 0.18443398 93.14286 0
-0.44110566 -2.0399094 0.18260373 90.785713 0
-0.38207525 -2.0359464 0.18123412 91.14286 0
-0.17896287 -2.0299897 0.1782916 84.166664 0
-0.12034549 -2.0257809 0.17755802 100 0
-0.038476817 -2.0245709 0.17717019 99.666664 0
0.030132743 -2.0232503 0.1770371 72.454544 0
0.12726332 -2.0150235 0.17665017 94.666664 0
0.19815782 -2.0100114 0.17671698 99.933334 0
0.27985284 -2.0079412 0.17738205 99.769234 0
0.36015752 -2.0083177 0.17851675 99.5 0
0.43147454 -2.0061419 0.17954081 98.333336 0
0.51990503 -2.0016737 0.18093532 94 0
-1.3918616 -1.9554489 0.20999552 51.42857 0
-0.19189113 -1.9225034 0.20311995 14.5 0
0.28139678 -1.9970602 0.17646132 100 0
0.35983038 -1.9962858 0.17747813 99.5 0
0.44639915 -1.9945247 0.17882614 98.099998 0
0.52344495 -1.9935008 0.18033315 94.454544 0
0.60007906 -1.9917952 0.18200611 94.214287 0
0.67758971 -1.9839274 0.1834255 93.214287 0
0.72525477 -1.9877398 0.18511879 34.5 0
-2.435842 -1.8681908 0.16088074 68 0
-1.3985376 -1.8890631 0.20563774 48.42857 0
-0.19513692 -1.8830265 0.18785989 12 0
3.8665571 -1.872498 0.2251493 1 0
-1.4023888 -1.7846315 0.19857565 35.599998 0
-0.60404855 -1.7990481 0.2330142 1 0
-0.19516753 -1.8050401 0.20667854 12.25 0
3.8039072 -1.818447 0.22096242 12 0
3.8705339 -1.8130271 0.22399792 14.5 0
4.2032909 -1.7980604 0.23959403 18 0
-1.4059925 -1.7239115 0.19462845 53.333332 0
-0.19901444 -1.7108583 0.21148396 12.333333 0
0.6958645 -1.720596 0.22789569 1 0
-1.4105368 -1.6446335 0.18956374 54.5 0
-0.20322059 -1.6397094 0.20287184 15.333333 0
4.0213952 -1.6108863 0.22703341 12.5 0
-2.9846053 -1.5200769 0.17553481 20 0
-2.9390557 -1.5331991 0.17372921 31 0
-1.4607203 -1.5357442 0.18543255 57 0
-1.4167843 -1.5589141 0.18430535 56.666668 0
-0.2066921 -1.5645509 0.19377227 15.333333 0
4.0275254 -1.5533713 0.22623092 19.333334 0
-2.971478 -1.4827653 0.17404324 27.5 0
-2.9484129 -1.4685385 0.17263016 38 0
-2.8331213 -1.4912096 0.16778909 10 0
-2.7401664 -1.4871705 0.16339287 2 0
-2.701256 -1.4847864 0.16154367 35.666668 0
-1.7893093 -1.4406996 0.20098113 47 0
-1.4634298 -1.4698206 0.18147166 51.153847 0
-0.25099191 -1.4761243 0.20325778 67 0
-0.2210252 -1.4808332 0.20710947 55.375 0
0.6847868 -1.4778193 0.19999698 4.6153846 0
0.75642717 -1.4822732 0.20434445 1.0625 0
0.83526391 -1.472362 0.20786849 2.7222223 0
0.91573799 -1.4639829 0.21203393 1.8461539 0
1.0800534 -1.494092 0.18863396 70.210526 0
1.1632259 -1.4911072 0.19620593 67.615387 0
1.2378911 -1.4843823 0.20316942 67 0
1.283554 -1.4725982 0.19379532 65.666664 0
1.4000258 -1.4718894 0.17772798 57.400002 0
1.4800286 -1.4773092 0.18295732 59 0
1.5506892 -1.4692301 0.18689677 59.200001 0
1.6201417 -1.4647578 0.19108896 38.25 0
1.7424912 -1.4631196 0.1990637 51 0
1.7920493 -1.4578369 0.20211416 50 0
1.8758196 -1.4538597 0.20763984 45.599998 0
1.9490167 -1.4468855 0.21236949 39.333332 0
2.0311697 -1.4433917 0.21800558 9.666667 0
4.0183463 -1.4776453 0.2243817 11.333333 0
-2.9751415 -1.4117306 0.17258656 29.833334 0
-2.9427323 -1.3712604 0.1701442 22.5 0
-1.8415731 -1.4356916 0.20429306 38 0
-1.8014872 -1.4358963 0.20155387 47.714287 0
-1.7222199 -1.4348974 0.19612221 50.375 0
-1.6402677 -1.4293123 0.19034815 53.111111 0
-1.5586996 -1.4239756 0.18471207 53.222221 0
-1.4924128 -1.4217657 0.18033768 53.857143 0
0.85407013 -1.4321474 0.20474051 2 0
0.94080245 -1.4058782 0.20771413 1.2 0
0.96099007 -1.38933 0.20742163 1.75 0
1.3604792 -1.3738416 0.2374015 39 0
1.9850957 -1.4111598 0.21309578 13 0
2.2260487 -1.4301953 0.23148565 9 0
2.2800598 -1.4230216 0.23514619 13.75 0
2.3467374 -1.3977897 0.23898104 18 0
-2.9809749 -1.3370796 0.17122583 30 0
-2.9520073 -1.2966652 0.16897537 33.666668 0
1.3255292 -1.324604 0.23008935 39 0
2.0447896 -1.3289169 0.21335725 2 0
2.2475944 -1.2992188 0.22712786 11 0
-2.9779532 -1.2518272 0.16929936 30 0
-2.9578679 -1.2095044 0.16747507 29.5 0
1.1099445 -1.2434826 0.20465927 52.333332 0
1.1225005 -1.2250021 0.20400929 31 0
1.2686718 -1.2285844 0.21684621 38 0
1.3140267 -1.2335397 0.22131474 47.166668 0
1.3821273 -1.2246063 0.22673793 25.5 0
1.4464602 -1.2223537 0.23252673 31 0
3.6318076 -1.2400308 0.20112708 13.75 0
-2.9855063 -1.1790637 0.16822523 26.666666 0
0.83784735 -1.1374943 0.2237639 57.799999 0
1.5598154 -1.1622452 0.23886393 6.75 0
1.6605136 -1.1225246 0.17535734 26 0
1.6891786 -1.1227126 0.17744908 24 0
2.0856071 -1.1770982 0.2095224 2 0
2.1928389 -1.1931809 0.21841228 24.333334 0
2.2831254 -1.1888853 0.22521043 26.75 0
2.3681517 -1.1785445 0.23142755 11.333333 0
2.417861 -1.1646485 0.23479757 4 0
3.5844762 -1.1315569 0.19699256 13 0
3.6307459 -1.1769705 0.20002806 12 0
-2.9679558 -1.0483904 0.16496295 61.5 0
-2.9257822 -1.0507218 0.16292185 7 0
-2.8787522 -1.1056267 0.16161345 6 0
-2.1231008 -1.1080436 0.2095224 1 0
-2.0286446 -1.0693679 0.20063251 9 0
0.85334092 -1.0806942 0.21810877 29.125 0
0.91673058 -1.0606947 0.22206746 8.333333 0
1.5772641 -1.0856234 0.23511036 5.4000001 0
1.6286492 -1.119758 0.17291699 27 0
1.6983644 -1.1160412 0.17779772 23 0
3.5952644 -1.094396 0.19695766 16 0
3.634037 -1.0647327 0.19845797 8 0
3.7566576 -1.0793331 0.20484295 1 0
4.3170414 -1.1196787 0.2337324 70 0
4.3499475 -1.1039377 0.23519783 58 0
-2.9859068 -1.0092181 0.16518539 41.375 0
-2.9597023 -0.97997481 0.16339287 10 0
0.95041311 -1.0380918 0.22291914 5 0
0.98637587 -0.99668163 0.22213697 5.2307692 0
1.5470746 -1.0065434 0.22662826 3.8 0
2.3010647 -0.97841978 0.21876091 1.5 0
-2.9808216 -0.92568702 0.16358128 22.799999 0
-2.5194142 -0.93046033 0.23497188 17 0
-2.4343805 -0.89037508 0.22677925 30 0
1.0274321 -0.94532692 0.22113578 6 0
1.0600507 -0.90603244 0.22088549 7.5555553 0
1.5125533 -0.91810262 0.21726868 3.5999999 0
1.5313315 -0.91492534 0.21903986 4 0
2.2898233 -0.91843146 0.21585572 1.6666666 0
-2.9928219 -0.8317399 0.16279474 39 0
-2.6064742 -0.81381571 0.2388939 17.5 0
-2.4987555 -0.82347703 0.23017833 29 0
-2.4442782 -0.8468647 0.22632892 37.166668 0
0.83212197 -0.83326644 0.22891629 47.285713 0
1.0949044 -0.85483241 0.22002509 8 0
1.1361479 -0.81785882 0.22173472 8.2857141 0
1.5438427 -0.84483683 0.21610482 3.75 0
1.6452533 -0.86341101 0.22813943 1 0
2.300544 -0.84032679 0.21428691 2.3333333 0
-2.9984448 -0.7600221 0.16211586 36.799999 0
-2.4006505 -0.76753628 0.22050402 8.5 0
-2.3744891 -0.75779587 0.21806367 29 0
0.84282225 -0.75609261 0.22013907 32.5 0
0.90744847 -0.73238587 0.22668107 9.666667 0
1.17671 -0.77919167 0.2235449 8.75 0
1.2361684 -0.74094141 0.22829005 8.8888893 0
1.5773112 -0.78092927 0.216115 4.5 0
2.3056574 -0.78827387 0.21318294 2 0
2.334074 -0.74431872 0.21434502 1.6666666 0
-3.004277 -0.68244261 0.16146225 39 0
0.94199276 -0.70507997 0.22873229 7 0
0.99069858 -0.66402262 0.23186474 9.583333 0
1.2672384 -0.716631 0.23058444 9 0
1.3189934 -0.69251388 0.23597272 9.1111107 0
1.6476353 -0.67647648 0.21870324 6 0
1.697677 -0.65134275 0.22326466 8.5 0
2.3821144 -0.69879264 0.2171921 1.3333334 0
2.4468393 -0.69008005 0.22242144 1 0
2.6459873 -0.70206511 0.23950398 8 0
3.2308977 -0.6691348 0.17291802 5.5 0
-3.0103073 -0.60975462 0.16097233 29.25 0
1.0220969 -0.61425436 0.23180568 10.142858 0
1.0637795 -0.59859806 0.237271 27.25 0
1.3533738 -0.61926401 0.23574677 3.5 0
1.365644 -0.60354078 0.23652893 1 0
1.7348022 -0.61413461 0.22597626 10.25 0
1.7917167 -0.57212174 0.23094243 21 0
1.8491933 -0.56464928 0.2374015 27 0
2.116271 -0.58490556 0.19209124 1 0
2.6146009 -0.5782069 0.23427464 1 0
-3.0192227 -0.54584885 0.160797 35.400002 0
2.5474784 -0.54938829 0.22799942 4 0
2.5737174 -0.54096001 0.23009115 4 0
-2.3974493 -0.40076572 0.21266 12 0
-3.0472255 -0.38765579 0.16098543 62 0
-3.0342019 -0.38707334 0.16030505 28 0
-2.4078968 -0.36886787 0.21312483 20.833334 0
-2.3951321 -0.38407469 0.21222422 24 0
-2.3195016 -0.33135357 0.2049903 2 0
-2.3780055 -0.28356034 0.2095224 1 0
-2.2912645 -0.26904589 0.20185268 4.1999998 0
-2.2327285 -0.30445856 0.1971463 1 0
1.825652 -0.30485427 0.16193536 4 0
1.8798008 -0.26940098 0.21073347 2 0
2.6345387 -0.24486253 0.23148565 1 0
-3.0491884 -0.21548957 0.16020037 44.75 0
-2.3609092 -0.22495462 0.20748876 9.333333 0
-2.2992773 -0.23415454 0.20220134 9.5 0
1.8799829 -0.21981454 0.19860119 2.25 0
1.9518681 -0.22238727 0.17187113 1 0
2.6713665 -0.18496798 0.23427464 1 0
-2.6913857 -0.11186146 0.23566914 1 0
-3.0768301 -0.036053739 0.16126454 26.888889 0
-3.0808194 0.040291369 0.16147739 37.599998 0
-3.0843034 0.1209773 0.16177043 52.099998 0
-3.0886712 0.198062 0.16220659 26.666666 0
-3.1379297 0.29344833 0.16517229 20.666666 0
-3.1165881 0.25718975 0.16389006 10.5 0
-3.1418071 0.35903686 0.16573055 51.444443 0
-3.1522222 0.43969741 0.16680518 17.5 0
-3.155391 0.5201962 0.167603 20.222221 0
-2.2284048 0.54982376 0.20080683 1 0
-3.1620915 0.59819335 0.16866136 19.111111 0
-2.3232083 0.58139497 0.2095224 2 0
-3.1611328 0.65389156 0.169176 22.5 0
-3.0714898 0.66040206 0.16464894 11 0
-3.0007775 0.68087953 0.16126455 11.166667 0
-2.5022695 0.64526725 0.226082 76 0
-1.7863744 0.71454132 0.19376996 4.5 0
-1.7558992 0.71728438 0.16594453 9 0
-2.9763584 0.77953219 0.1612471 45.333332 0
-1.7070926 0.74388576 0.18662056 49.32 0
-1.6663167 0.76742196 0.20997691 90.764709 0
0.83503097 0.79992789 0.22477302 52 0
1.5428181 0.75601089 0.21095586 3.5 0
-2.9725952 0.85161823 0.16205829 44.375 0
-2.9572816 0.81596547 0.16077608 41 0
-1.6903956 0.83430606 0.18540733 61.615383 0
-1.6738181 0.82295287 0.21251167 66.5 0
0.44880453 0.86488897 0.20801981 57.238094 0
0.51994544 0.85220748 0.2049772 43.454544 0
0.58569241 0.85885239 0.20384088 45.950001 0
0.78797328 0.84256935 0.20580517 64 0
0.83222204 0.81059331 0.20371664 50.470589 0
1.6270465 0.83547014 0.16001794 1 0
-2.9738364 0.92178833 0.16317044 38.125 0
-0.66188312 0.92506635 0.19982933 51.68 0
-0.60013145 0.92862791 0.19665577 66.875 0
-0.518305 0.92888618 0.19052197 67.692307 0
-0.44117209 0.92804009 0.19669852 55.277779 0
0.37788314 0.93537599 0.20488502 50.32 0
0.42195201 0.89748549 0.20985246 53.117645 0
0.60341007 0.88902748 0.17020072 54.400002 0
0.6616115 0.90788573 0.20201528 52 0
0.79576713 0.89692515 0.18991147 51.5 0
-2.9795959 1.0393543 0.16538164 11 0
-2.9103467 1.0285822 0.16177046 10.5 0
-1.7655488 1.0144153 0.17814633 2 0
-1.1382509 0.99997753 0.23997049 1 0
-0.41618028 0.99560058 0.19410262 19 0
0.36906135 0.99512726 0.1892955 43.444443 0
0.84852749 1.0138322 0.18593018 66.875 0
-3.2284594 1.0794485 0.17840748 65.222221 0
-1.1368657 1.0872777 0.19316293 4.3000002 0
-1.1130199 1.0855881 0.19090834 3 0
-0.41858903 1.0773156 0.20613924 19.333334 0
-0.16207819 1.1042565 0.17677096 100 0
-0.13193823 1.1182996 0.21084347 97.599998 0
-0.026799938 1.1169876 0.20378838 100 0
0.76761252 1.0538177 0.20649351 13 0
0.84177351 1.0628291 0.19527677 52.400002 0
-1.218439 1.1267077 0.20376556 1 0
-1.1493406 1.1498666 0.19962201 1 0
-0.41656962 1.1535889 0.20681237 71.714287 0
-0.35795152 1.1538043 0.21223632 71.639999 0
-0.29109034 1.1662463 0.21210654 65.888885 0
-0.17966032 1.1344213 0.20486218 89.555557 0
-0.11919685 1.1279985 0.19637556 93.454544 0
-0.042685889 1.1270151 0.19810726 100 0
0.038370628 1.1305979 0.19959722 100 0
0.12011134 1.1322341 0.20009896 100 0
0.17723832 1.1354228 0.20457359 91.181816 0
0.85177583 1.1553251 0.19328912 69.833336 0
0.89630616 1.1661105 0.20696077 48.5 0
1.5710754 1.1583278 0.20514077 7.5 0
1.6229386 1.177846 0.1754445 14.5 0
2.0134227 1.1983374 0.2049903 2 0
-0.27234921 1.2244411 0.1986718 13 0
1.5959873 1.2158169 0.17553167 19 0
1.6273669 1.2577037 0.17994756 42 0
2.9235585 1.2512888 0.16666387 12.25 0
3.0002246 1.237829 0.17009188 1 0
3.1545422 1.2629641 0.17808183 30.666666 0
3.2228453 1.2513533 0.18118709 10 0
3.3249164 1.2612848 0.18636835 7.5 0
3.4233377 1.2690482 0.19134027 9 0
3.5012357 1.2771153 0.1953178 9 0
-1.7007185 1.3440837 0.18965089 14 0
-1.6678925 1.3430386 0.18734999 41.200001 0
-0.27940962 1.2868772 0.18503749 11.5 0
-0.23361021 1.3468511 0.21650532 41 0
0.23590742 1.3230401 0.16501111 1 0
0.24217294 1.3175598 0.18825528 3.5 0
1.6357017 1.3216672 0.18398577 50.75 0
1.8767034 1.3248498 0.20098113 72 0
1.9371071 1.322984 0.20523433 71.800003 0
2.1345658 1.3309722 0.22008567 41.799999 0
2.2145746 1.2872729 0.22410645 17.333334 0
2.2908115 1.2918186 0.23009115 20.5 0
2.3661816 1.3018565 0.23627922 16 0
2.4087574 1.3007809 0.23950398 1 0
2.9105887 1.3179089 0.16744891 15 0
3.5699108 1.2810276 0.19877198 11 0
-1.6498187 1.3785605 0.18810146 40.333332 0
-1.5799254 1.3958243 0.18445063 39.583332 0
-0.27294755 1.4127508 0.20037714 63.076923 0
2.1331673 1.3927507 0.22288628 44.333332 0
2.8997161 1.3960935 0.16866833 24 0
-1.5867636 1.4504379 0.18808208 12 0
-0.27424702 1.4458767 0.23308739 72 0
2.8599956 1.4698392 0.16852181 12 0
2.883924 1.4536233 0.1692545 14 0
-2.5898261 1.6471961 0.16085458 26.25 0
-2.1731246 1.668093 0.23967829 22.5 0
-2.1437967 1.671277 0.23781897 22.333334 0
-1.5870003 1.6356549 0.19939296 28.222221 0
-1.6017081 1.7128209 0.20516461 44 0
-1.5635372 1.7097527 0.20270972 37 0
-1.4788029 1.7193279 0.19841403 35.090908 0
-1.39649 1.7210746 0.19391361 38.636364 0
-1.320663 1.7266364 0.19018969 37.454544 0
0.37715626 1.8205497 0.19542798 70.300003 0
0.43317565 1.8203326 0.19664337 86.25 0
0.54898292 1.7999572 0.19773792 33.25 0
0.60796738 1.8228946 0.20771295 88.916664 0
0.67381984 1.8275269 0.21325821 94.5 0
0.72963274 1.8325548 0.17256837 97 0
2.1007471 1.7614875 0.23985259 37 0
0.54743385 1.8845983 0.17169681 6.5 0
0.67958069 1.8446137 0.17200185 99 0
0.74149436 1.8434997 0.17384665 81.333336 0
-1.1948036 -2.0837142 0.29492384 86 0
-0.91382682 -2.1157804 0.28298062 1 0
-0.73603755 -2.1315644 0.27688718 1 0
0.063349836 -2.0853701 0.25616938 1 0
-1.3724585 -2.0176132 0.2996158 98.75 0
-1.3187422 -2.0282047 0.29705653 49 0
-1.2339664 -2.0650692 0.29538423 69.111115 0
-1.1597784 -2.0646987 0.29078028 82.699997 0
-1.0792584 -2.0669565 0.286318 88.46154 0
-0.99690539 -2.0646226 0.28151819 97.454544 0
-0.92669952 -2.0582051 0.27715799 80.444443 0
-0.81910414 -2.0473082 0.27075309 93.666664 0
-0.76180631 -2.042073 0.26762509 95 0
-0.66710293 -2.0415604 0.26372528 66.571426 0
-0.60060871 -2.0381289 0.26090491 87.285713 0
-0.51999789 -2.0367646 0.25811929 94.928574 0
-0.44114479 -2.035126 0.25569934 97.64286 0
-0.3808651 -2.0238378 0.2528615 98 0
-0.17253551 -2.0134211 0.248126 89.199997 0
-0.11822489 -2.0167043 0.24806102 100 0
-0.050864931 -2.0117426 0.24709688 100 0
0.027231786 -2.0143526 0.24736431 81.625 0
0.12562765 -2.0059021 0.24678545 94.333336 0
0.19911778 -2.0059872 0.24753407 100 0
0.28517368 -2.0044775 0.24861348 100 0
0.35316968 -2.00073 0.24946657 100 0
-1.3859167 -1.964972 0.29524881 54.222221 0
-0.43415177 -1.9623919 0.31834418 81.083336 0
-0.37777022 -1.9607639 0.31627142 79 0
-0.17668594 -1.9644129 0.29477787 82.25 0
-0.12013889 -1.950882 0.30959427 86.800003 0
-0.035850409 -1.9601452 0.29112431 88.409088 0
0.031752095 -1.9510533 0.2996054 76.199997 0
0.1361288 -1.9553809 0.28818589 89 0
0.19968905 -1.9549172 0.28532231 93.909088 0
0.27814263 -1.9543968 0.28206167 93.535713 0
0.35986736 -1.9625779 0.27572042 94.279999 0
0.44059059 -1.9620932 0.27247784 95.727272 0
0.51990592 -1.9622539 0.27393651 96.695656 0
0.59875208 -1.972801 0.26210228 98.25 0
0.67466396 -1.978341 0.25665686 98.166664 0
0.72257066 -1.9836391 0.25921613 23 0
-2.4326603 -1.8594745 0.26788771 57.5 0
-1.386426 -1.8914688 0.2879529 51.400002 0
-0.34034431 -1.8896614 0.30410865 72 0
-0.19293851 -1.8686452 0.29753837 14.333333 0
0.21814117 -1.9175754 0.30567297 84 0
0.37007335 -1.9170475 0.30923969 82.199997 0
0.4423936 -1.9163691 0.31152812 87 0
0.52226847 -1.9137541 0.31420979 90 0
0.60154682 -1.9115602 0.31741759 88.769234 0
0.65864187 -1.9033757 0.31902206 61.666668 0
0.77239448 -1.8466648 0.31704056 62.333332 0
-2.4376414 -1.793579 0.26477915 59.625 0
-1.3981513 -1.7844192 0.27834961 46 0
-0.60850573 -1.7773002 0.2975384 1 0
-0.19690028 -1.7907505 0.28533649 12.5 0
0.71523654 -1.8222592 0.31005314 24 0
0.75267571 -1.8340746 0.31401616 56.555557 0
0.83163011 -1.8212924 0.31712881 49.76923 0
0.95890069 -1.7664601 0.31834418 48.5 0
-2.4431458 -1.7202834 0.26142365 58 0
-1.3972138 -1.7137053 0.27149785 54.444443 0
-0.19971254 -1.7327859 0.2762633 13 0
0.95533699 -1.716931 0.31120035 45.333332 0
-2.4465461 -1.6423535 0.25780669 56.111111 0
-1.4026912 -1.6338463 0.26440775 54.400002 0
-0.20246518 -1.6381056 0.27322727 13.8 0
0.94878322 -1.6442083 0.30066708 47 0
-3.0459206 -1.5308324 0.29824695 30 0
-3.0004687 -1.5323853 0.2947607 18.5 0
-2.9317312 -1.5222632 0.28900844 16 0
-2.448334 -1.5611873 0.2540493 55.777779 0
-1.4509268 -1.5330783 0.25917551 63 0
-1.4105842 -1.5524936 0.25756535 59.909092 0
-0.27564359 -1.545089 0.27709681 99.5 0
-0.20747656 -1.5578629 0.28029832 14.777778 0
0.94446886 -1.5699275 0.29018596 50 0
-3.0491424 -1.4540262 0.2955451 22.5 0
-2.9929273 -1.455068 0.29115829 27 0
-2.9447517 -1.4700352 0.28796256 68.333336 0
-2.7477348 -1.4809142 0.27308798 21 0
-2.678946 -1.475291 0.26756811 29.5 0
-2.6076272 -1.4763105 0.26216447 31.6 0
-2.5249326 -1.4643654 0.25536633 22 0
-2.4614921 -1.4931259 0.25188008 48.125 0
-1.4561206 -1.4821668 0.25512797 55 0
-1.4011391 -1.5189316 0.253732 61 0
-0.2495537 -1.4905908 0.28001818 52.75 0
-0.22188212 -1.4877566 0.2862798 47.111111 0
0.94200772 -1.4857582 0.27864107 53.400002 0
1.0148181 -1.4741522 0.28345928 70 0
1.0553906 -1.4952154 0.28987309 48.333332 0
1.3197811 -1.4704075 0.24264188 64 0
1.3902632 -1.4629194 0.24780101 56.333332 0
-3.0454328 -1.369628 0.29214603 40 0
-2.9902153 -1.3825617 0.28822404 10.25 0
-2.9552259 -1.3705173 0.28499928 62 0
-2.3828993 -1.4033616 0.24194434 22.5 0
-1.7931525 -1.429522 0.28157914 50.25 0
-1.7188034 -1.4266794 0.27427569 53.42857 0
-1.6415539 -1.4217355 0.26665014 54.222221 0
-1.55898 -1.415132 0.25852552 56.111111 0
-1.4743438 -1.4129494 0.25671804 59.833332 0
-1.4397966 -1.4208244 0.24836974 61 0
0.94502693 -1.4198254 0.27013999 59.857143 0
0.97439384 -1.4300158 0.27407321 56 0
1.3802583 -1.4156241 0.24276374 43 0
1.6998223 -1.3769802 0.26860005 16 0
2.3801632 -1.4177393 0.24238011 23.5 0
2.4083483 -1.3753694 0.24264158 1 0
-3.0541387 -1.2885275 0.29001072 21 0
-2.9880197 -1.2990513 0.2850574 18.333334 0
-2.9492195 -1.3127586 0.28244272 52.333332 0
1.6650121 -1.3060056 0.25982547 1 0
-3.0492821 -1.2177746 0.28726533 28 0
-2.9700642 -1.2187339 0.28087389 22.666666 0
-2.9554117 -1.2054801 0.27924702 55 0
1.5133407 -1.2521865 0.24117945 23.5 0
1.5477847 -1.2602299 0.24507926 15.5 0
1.581282 -1.150134 0.24008264 9 0
4.5921569 -1.1398468 0.24796779 24 0
-2.9093225 -1.1162016 0.27262318 15 0
-2.8122547 -1.1128821 0.26460484 1 0
-2.295579 -1.0892997 0.31198555 1 0
-2.0875471 -1.088562 0.28907412 1 0
-2.0265713 -1.0509239 0.28029951 2 0
0.95416546 -1.0709007 0.27881008 67.400002 0
0.96416092 -1.0825825 0.28182489 51 0
4.6882496 -1.0991666 0.25236401 64.5 0
-2.7254865 -1.0391277 0.25519201 16 0
-2.6602733 -1.023194 0.24937002 16.6 0
-2.6388512 -0.98085546 0.24630213 19 0
0.93141556 -0.98481143 0.27593398 56 0
0.96038395 -0.98242521 0.31718099 60 0
5.4704189 -0.98479199 0.29130197 74 0
-3.1318641 -0.88888597 0.28482497 70.5 0
-3.090111 -0.91332126 0.28191975 34.666668 0
-2.9835846 -0.89343309 0.27248371 21.799999 0
0.92830634 -0.91793734 0.29549417 78.25 0
5.4700499 -0.94090939 0.29088327 3 0
-3.1454248 -0.80819309 0.28412771 76 0
-3.0963211 -0.82750303 0.28040907 22 0
-2.9893456 -0.80624342 0.27088004 29 0
-2.4067521 -0.8451913 0.31320426 1 0
-2.3703427 -0.81077224 0.30759826 15.8 0
0.94265163 -0.85078502 0.29318619 100 0
0.96800947 -0.81146681 0.29162654 100 0
-3.1361361 -0.74556983 0.28203598 51.25 0
-3.0604639 -0.72854054 0.27523783 12 0
-2.9928529 -0.73261631 0.26957271 20.25 0
-2.4646916 -0.76812208 0.31698221 14 0
-2.3738596 -0.77411038 0.30658269 55.5 0
1.0066763 -0.76238334 0.29160085 94.785713 0
1.0455017 -0.72542542 0.29378608 100 0
-3.1429615 -0.67000604 0.28116444 53 0
-3.0882342 -0.65023023 0.2761094 25 0
-2.9964046 -0.65083945 0.26826537 22.75 0
1.081934 -0.69673103 0.29713985 99.090912 0
1.1610528 -0.67072862 0.30958888 85.875 0
1.2039429 -0.65777457 0.3167311 57 0
1.3804904 -0.67083812 0.2430992 5.3333335 0
1.7496791 -0.6562674 0.29597405 8 0
1.7658486 -0.6467278 0.29785126 10.5 0
2.3817852 -0.65963215 0.30345467 1 0
2.4043648 -0.65235025 0.30589208 1 0
2.6834011 -0.67453915 0.24207507 11 0
-3.1468143 -0.59776509 0.2802493 55.75 0
-3.0790625 -0.56813383 0.27393049 9.5 0
-2.9998915 -0.57407117 0.26721948 20.666666 0
1.1035771 -0.59865677 0.24404472 39.5 0
1.158107 -0.59340799 0.25295821 43.714287 0
1.2471988 -0.58910102 0.26812482 20.6 0
1.2836996 -0.59179366 0.27476496 22 0
1.4638222 -0.58117491 0.24946086 2.3333333 0
1.884451 -0.56464547 0.24154507 25 0
1.9273766 -0.56652677 0.24666359 10 0
2.3804936 -0.62630886 0.30223599 2.5 0
2.4007418 -0.6114952 0.3041859 2 0
2.688596 -0.62417561 0.24147952 14 0
3.2552514 -0.58731627 0.28940064 59.25 0
-3.1555026 -0.54818034 0.28020573 41.5 0
-2.2852519 -0.52029741 0.28778228 6.1999998 0
1.936039 -0.55807692 0.2473948 1 0
-3.1490312 -0.40422538 0.27776533 19.5 0
-3.0418203 -0.40208393 0.26843968 1 0
-2.430207 -0.46029335 0.30369842 21 0
-2.3510869 -0.42980871 0.29346141 8 0
-2.2541347 -0.4602958 0.28249317 10 0
-2.193423 -0.44832316 0.27488852 9.6000004 0
4.9375124 -0.41809654 0.25969106 44.5 0
-3.1732643 -0.39525118 0.27976993 6 0
-3.0244069 -0.34806383 0.26634794 6.5 0
-2.2569759 -0.33380795 0.28013703 20.666666 0
-2.1868284 -0.36397755 0.27221182 19.363636 0
1.9562125 -0.35409838 0.27927878 7 0
4.8342929 -0.34570625 0.25400385 70.666664 0
-3.1565764 -0.24288547 0.27698094 40 0
-3.0467777 -0.24139158 0.2673938 10 0
-3.010834 -0.25889814 0.26438695 14.25 0
-2.4352725 -0.31499079 0.30150479 23 0
-2.3741155 -0.29530001 0.29375386 15.6 0
-2.283988 -0.28056803 0.28257442 8.7777777 0
1.8804752 -0.28041795 0.30113637 2 0
1.9610707 -0.27985513 0.24325122 6 0
4.7593575 -0.24109866 0.24974722 14 0
4.8520579 -0.28316402 0.25471911 74.5 0
-3.1910613 -0.23601754 0.27994424 6 0
-3.0190563 -0.18028957 0.26460481 4.5 0
-2.4204569 -0.18163472 0.29803151 7.75 0
-2.3625746 -0.20186952 0.29114586 4 0
-2.3100288 -0.22493228 0.28497928 6.8000002 0
4.6218743 -0.18588936 0.24242018 28.666666 0
-3.0552359 -0.081604913 0.2673938 13 0
-3.0277989 -0.113528 0.26509291 13.4 0
-2.7897282 -0.14180955 0.24438471 1 0
-2.4501891 -0.128838 0.30126104 1 0
-2.3319473 -0.14429995 0.28688043 1 0
-2.2943344 -0.14201938 0.28224942 1 0
4.6168876 -0.11367196 0.24203639 19.666666 0
-3.1743281 -0.040300827 0.27774793 64.900002 0
4.6227646 -0.040876891 0.2422806 18 0
-3.1837542 0.038499255 0.2785691 64.888885 0
4.6218853 0.042590182 0.242237 34.5 0
-3.1853635 0.11764915 0.27888092 67.099998 0
4.6178927 0.12630191 0.24210615 73.666664 0
-3.2002113 0.1884457 0.28046718 60 0
-3.1896846 0.20303899 0.27963436 59.222221 0
4.6258669 0.1866405 0.24262951 69.5 0
4.6402359 0.22369948 0.2434669 67 0
-3.2080779 0.27333719 0.28168735 55 0
-3.1931701 0.28286415 0.28046718 54.625 0
4.6143351 0.27091682 0.24224572 53.666668 0
-3.2046218 0.36307922 0.28216675 51.375 0
-3.1974418 0.32309207 0.28116441 55 0
4.6178999 0.35553694 0.24273419 73.75 0
-3.2089574 0.42746744 0.28323126 48.714287 0
-3.1975546 0.46818271 0.28273323 43.666668 0
4.7542543 0.4276523 0.25016591 58 0
4.8016567 0.4572717 0.2527827 81 0
-3.2062802 0.52145046 0.28420517 49.444443 0
4.7711878 0.55542332 0.25173599 26 0
4.8098192 0.49621004 0.25341073 73.5 0
4.8812237 0.54234076 0.25738826 13 0
-3.2121263 0.59990245 0.28589019 47.111111 0
4.7651038 0.60506815 0.25173596 66.333336 0
-3.2092352 0.6651926 0.28674239 53.166668 0
-3.1262679 0.68192053 0.27994424 50.5 0
-3.1110878 0.70425761 0.27907267 60 0
-2.5051641 0.69756925 0.3192977 29 0
-2.4505634 0.6715619 0.31198555 13.5 0
-1.7824084 0.70858562 0.30379578 7 0
-1.7360862 0.71769053 0.2975384 1 0
4.7668853 0.66739178 0.25225934 46 0
-3.1136441 0.74783593 0.28016216 50.25 0
-2.999706 0.76684618 0.27088004 28 0
-1.9129291 0.75506556 0.25251329 1 0
-1.7913694 0.72858143 0.30629873 2.3333333 0
-1.7022547 0.73913151 0.2939404 43.200001 0
-1.6674398 0.77230716 0.291062 80.699997 0
-1.1301094 0.78808218 0.31808078 3 0
0.86153543 0.79834938 0.31472397 61 0
1.5411451 0.79987794 0.27501184 1 0
-3.1305492 0.85187721 0.28384882 68.199997 0
-1.6882794 0.83832181 0.2985552 53.5 0
-1.6705233 0.81858176 0.29464436 71.5 0
-1.210736 0.82753479 0.28506866 1 0
-1.1605287 0.84784663 0.27939209 1.4375 0
-1.0717366 0.82290459 0.3119621 1.4 0
0.44585255 0.85347027 0.25807956 53.57143 0
0.51523107 0.82511169 0.26071706 38.933334 0
0.60035902 0.83283812 0.26399079 43.5 0
0.65644914 0.86340308 0.27039364 64.75 0
0.78866065 0.8474474 0.29019359 64.26667 0
0.82847691 0.81419575 0.28972 65.099998 0
0.88794839 0.81934774 0.27893931 53.5 0
1.5586758 0.80892992 0.27814052 1 0
1.6128948 0.81579244 0.28627509 1 0
5.5008349 0.85796952 0.29177299 39 0
5.5201926 0.81712031 0.29245335 36 0
-3.2200034 0.95686603 0.29388916 52 0
-3.1462526 0.90488976 0.28642282 67.833336 0
-1.1608473 0.90047139 0.28557751 1 0
-0.66263759 0.90896416 0.27865881 49.708332 0
-0.60134262 0.90781301 0.27110383 66.400002 0
-0.52860457 0.91098356 0.26509207 64 0
-0.44241053 0.91902083 0.26788196 51.285713 0
-0.39792728 0.95595878 0.27745402 2 0
0.37192133 0.91487354 0.26467234 48.53846 0
0.4148508 0.889763 0.26306367 23.200001 0
0.68347538 0.89142108 0.28054318 60 0
0.7667985 0.92383325 0.27736467 48 0
0.84194994 0.9526571 0.27027819 44.5 0
