# .PCD v0.7 - Point Cloud Data file format
VERSION 0.7
FIELDS x y z intensity ring
SIZE 4 4 4 4 2
TYPE F F F F U
COUNT 1 1 1 1 1
WIDTH 1232
HEIGHT 1
VIEWPOINT 0 0 0 1 0 0 0
POINTS 1232
DATA ascii
-4.8460274 -0.45733634 0.86283982 96 13
-3.7977014 -0.25313336 0.27195543 7 6
-4.8333859 -0.45224017 0.93256301 87 14
-4.994875 -0.49737379 0.46397558 1 7
-4.8218064 -0.4473294 1.0037638 86 15
-4.9984732 -0.50618267 -0.037082046 0 0
-4.9393387 -0.47920489 0.52677786 9 8
-4.9977732 -0.50348282 0.034937263 3 1
-4.936799 -0.47614729 0.59764117 6 9
-4.9417543 -0.48937318 0.10884735 6 2
-4.9375553 -0.47335821 0.67009538 100 10
-5.0066614 -0.49984339 0.1776574 7 3
-4.9356279 -0.47035816 0.74306065 100 11
-5.0064278 -0.49722609 0.24916755 12 4
-4.8469305 -0.44998199 0.78921187 89 12
-4.8350863 -0.44509259 0.85789573 93 13
-3.7985375 -0.24907526 0.27185154 7 6
-4.8426905 -0.44393247 0.93525833 87 14
-4.973712 -0.48218268 0.4605315 1 7
-4.8238697 -0.43728557 1.0035058 86 15
-5.0004749 -0.49633577 -0.037337929 0 0
-4.9413614 -0.46924984 0.52651894 9 8
-4.9959416 -0.49245554 0.034977585 3 1
-4.9485111 -0.46767986 0.59938133 7 9
-4.9457393 -0.47976568 0.10850251 6 2
-4.9434056 -0.46404654 0.67077273 100 10
-4.9969921 -0.48710743 0.17747006 7 3
-4.9244909 -0.45738095 0.73902452 100 11
-5.0006886 -0.48523113 0.24867104 12 4
-4.8563719 -0.44172603 0.79137504 89 12
-4.831542 -0.43404076 0.85562086 87 13
-3.7993813 -0.24487297 0.27174079 7 6
-4.8447161 -0.43383142 0.93499184 87 14
-4.9913697 -0.47477424 0.46236947 1 7
-4.8240786 -0.42689738 1.0024395 88 15
-5.0141916 -0.48846063 -0.038949698 0 0
-4.9472761 -0.45967928 0.52690911 9 8
-4.9783964 -0.47837502 0.036240786 3 1
-4.9390121 -0.45509711 0.5966922 7 9
-4.9634037 -0.47281367 0.1075604 6 2
-4.9531021 -0.45505419 0.67237127 100 10
-5.0127678 -0.47943756 0.17709088 7 3
-4.9208479 -0.44594514 0.73713285 100 11
-4.998805 -0.47406447 0.24827921 12 4
-4.858345 -0.43166095 0.79110301 89 12
-4.8390551 -0.42507407 0.85736096 93 13
-4.8393703 -0.42239213 0.93177521 87 14
-4.9544549 -0.4569124 0.4568049 1 7
-4.8314486 -0.4178158 1.0045656 86 15
-4.9966564 -0.47442409 -0.036997527 0 0
-4.9512057 -0.44969881 0.52695727 11 8
-4.992095 -0.47049034 0.035037011 3 1
-4.9294362 -0.44262707 0.59399831 7 9
-4.9417872 -0.45821872 0.1082935 6 2
-4.9551101 -0.44457662 0.67208135 100 10
-5.0265522 -0.47124457 0.17671424 7 3
-4.9228272 -0.43558678 0.73684549 100 11
-4.9890003 -0.46145493 0.24765979 12 4
-4.8490057 -0.41957054 0.78720009 89 12
-4.8502388 -0.41669479 0.86043125 100 13
-3.801003 -0.23645575 0.27150923 7 6
-4.8376198 -0.41166732 0.93002331 89 14
-4.9798136 -0.45086923 0.45967966 1 7
-4.8369713 -0.40835077 1.0058823 86 15
-4.9985628 -0.46424738 -0.037285328 0 0
-4.9531446 -0.43933895 0.52666402 11 8
-4.9940014 -0.46028382 0.034747571 3 1
-4.9448609 -0.43473339 0.59651351 8 9
-4.9397221 -0.44749117 0.10817876 6 2
-4.9532342 -0.43341312 0.67084491 100 10
-5.026535 -0.46039352 0.17643034 7 3
-4.932344 -0.42654574 0.73869646 100 11
-4.9948545 -0.451823 0.24747415 12 4
-4.8508635 -0.40954724 0.78691387 89 12
-4.8502455 -0.4062919 0.85947287 100 13
-3.8017812 -0.23224095 0.27138841 7 6
-4.8413115 -0.40190881 0.93046927 91 14
-4.9583139 -0.43625352 0.45621911 1 7
-4.8225622 -0.39548796 0.99839675 90 15
-5.0004158 -0.45406088 -0.037581235 0 0
-4.9530864 -0.42863098 0.5260303 14 8
-4.9997792 -0.45077816 0.034140825 3 1
-4.9544654 -0.42568693 0.59781408 8 9
-4.9572644 -0.44032875 0.10720763 6 2
-4.9397979 -0.42031497 0.6667881 100 10
-5.0146465 -0.44744915 0.17623019 7 3
-4.9380226 -0.41677031 0.73946422 100 11
-5.0045991 -0.44283596 0.24738809 12 4
-4.8526697 -0.39951441 0.78661966 89 12
-4.8390408 -0.39404714 0.85449088 90 13
-4.844954 -0.39212126 0.93090677 89 14
-4.9836097 -0.42994395 0.45907024 1 7
-4.8279753 -0.38603377 0.99969828 90 15
-5.0022173 -0.44386539 -0.037885159 0 0
-4.9451919 -0.41662323 0.52406144 15 8
-4.9976554 -0.43984205 0.034144431 3 1
-4.9505019 -0.41429019 0.59630072 9 9
-4.9590359 -0.43024909 0.10690582 6 2
-4.949297 -0.41118056 0.66835052 100 10
-5.010561 -0.43600002 0.17596379 7 3
-4.9246397 -0.40383023 0.73486179 100 11
-4.9965701 -0.43071923 0.24680348 12 4
-4.8600702 -0.39038894 0.78812623 84 12
-4.8370638 -0.38342831 0.85285044 96 13
-4.8503852 -0.38259616 0.93207002 89 14
-4.9815149 -0.41881555 0.45822763 1 7
-4.8315315 -0.37624657 1.0001919 86 15
-5.02355 -0.43703264 -0.04044354 0 0
-4.9527984 -0.40724975 0.52474022 14 8
-4.975759 -0.42592257 0.035703659 3 1
-4.9522772 -0.40388307 0.59598142 9 9
-4.9627252 -0.42049381 0.10651049 6 2
-4.954917 -0.40134072 0.66896576 100 10
-5.0122705 -0.4259406 0.17565432 7 3
-4.9225359 -0.39319727 0.73348147 100 11
-4.9943857 -0.41967824 0.24637544 12 4
-4.8674297 -0.3811934 0.7896229 86 12
-4.842423 -0.37433001 0.85388875 100 13
-3.8039846 -0.21957411 0.27100593 7 6
-4.8428979 -0.37104928 0.92808563 91 14
-5.0027905 -0.4118585 0.46053797 1 7
-4.8386092 -0.36731696 1.0022845 88 15
-5.0252051 -0.42706347 -0.040755868 0 0
-4.9622536 -0.3984603 0.52575111 21 8
-5.004921 -0.42069948 0.033219606 3 1
-4.9423251 -0.39200017 0.59326601 9 9
-4.9406767 -0.40684384 0.10723379 6 2
-4.9681187 -0.39298972 0.67145431 99 10
-5.0178776 -0.41651475 0.1753048 7 3
-4.9241853 -0.38317889 0.73316556 100 11
-4.9980073 -0.40996692 0.24611233 11 4
-4.8596067 -0.36998403 0.78630233 84 12
-4.851469 -0.36574256 0.85625529 100 13
-4.8426504 -0.3610183 0.92704225 89 14
-4.9848671 -0.39857501 0.45759234 1 7
-4.8383889 -0.35726085 1.0011752 84 15
-5.0032706 -0.41327149 -0.038372785 0 0
-4.9677711 -0.38898745 0.52608997 24 8
-5.0006084 -0.40982276 0.03336823 2 1
-4.9516807 -0.3831532 0.59454191 11 9
-4.9580097 -0.39969227 0.10623324 6 2
-4.9505167 -0.37991551 0.66644961 100 10
-5.0273919 -0.40766308 0.17491341 7 3
-4.9372225 -0.37484288 0.73605287 100 11
-4.9956551 -0.39930552 0.24568115 11 4
-4.8536062 -0.35914114 0.78357929 91 12
-4.8530149 -0.35599235 0.85593939 100 13
-3.7344532 -0.20059179 0.26381469 9 6
-4.8478765 -0.3517862 0.92819232 89 14
-4.9668612 -0.38548332 0.4546454 1 7
-4.82722 -0.34568354 0.99527186 90 15
-5.0126605 -0.40463576 -0.039598733 0 0
-4.9615364 -0.37774128 0.52443612 25 8
-5.0119991 -0.40144747 0.032262087 2 1
-4.9629374 -0.37450108 0.59620667 12 9
-4.9555693 -0.38933888 0.10608539 6 2
-4.9482317 -0.3692511 0.66518188 100 10
-5.0170965 -0.3957144 0.17467976 7 3
-4.9464121 -0.36583695 0.73785889 100 11
-5.0031314 -0.39016399 0.2455083 12 4
-4.8626547 -0.35049474 0.7856648 91 12
-4.8489113 -0.34545618 0.85361284 100 13
-4.8512163 -0.34225488 0.92860049 91 14
-4.9997888 -0.3800182 0.45849475 1 7
-4.8323398 -0.3364467 0.99654341 90 15
-4.9906788 -0.39046177 -0.037243456 0 0
-4.9631534 -0.36698374 0.52407479 28 8
-4.9959021 -0.38779306 0.033300966 1 1
-4.9626174 -0.36340961 0.59544373 17 9
-4.9689846 -0.38069275 0.10521364 6 2
-4.9459915 -0.35792372 0.66388422 100 10
-5.0068846 -0.38283882 0.17440698 7 3
-4.9270735 -0.35177818 0.73160231 100 11
-5.006711 -0.37968493 0.24519689 12 4
-4.8642035 -0.34006611 0.78531194 94 12
-4.8392887 -0.33322176 0.84924412 100 13
-3.7080207 -0.18894933 0.26087031 10 6
-4.8546085 -0.33201993 0.92897743 89 14
-4.9935937 -0.36765522 0.45706755 1 7
-4.8393817 -0.32638782 0.99856871 86 15
-5.0275421 -0.38549957 -0.041664273 0 0
-4.9705267 -0.3573654 0.5247066 37 8
-4.9776468 -0.3747142 0.034517646 1 1
-4.9485893 -0.35084984 0.59189552 21 9
-4.9566007 -0.36857376 0.10547492 5 2
-4.9552054 -0.34851575 0.66539073 100 10
-5.0162973 -0.37357312 0.17397833 7 3
-4.9247422 -0.34089175 0.73017526 100 11
-5.0022669 -0.36841765 0.24467924 12 4
-4.8656492 -0.32996637 0.78496242 94 12
-4.8481989 -0.3241573 0.85156494 93 13
-4.8505135 -0.32116729 0.92642742 91 14
-5.0304613 -0.36189049 0.46139398 1 7
-4.8426375 -0.31648391 0.99901283 88 15
-5.0447268 -0.37739092 -0.043839723 0 0
-4.9641623 -0.34588358 0.52302128 33 8
-4.99683 -0.36706263 0.032746643 1 1
-4.9461474 -0.33995461 0.59073365 21 9
-4.9421654 -0.35631695 0.10582092 4 2
-4.9605184 -0.33852586 0.66595376 100 10
-5.0197229 -0.36340901 0.17359224 7 3
-4.9280882 -0.33075988 0.73034275 100 11
-4.9977598 -0.35720506 0.2441557 11 4
-4.8613625 -0.31915617 0.78280324 89 12
-4.8533244 -0.31454813 0.85254169 93 13
-4.8408146 -0.30970201 0.92167562 93 14
-4.9925938 -0.3460874 0.45580643 1 7
-4.8440223 -0.30633759 0.99865198 88 15
-5.0106878 -0.3621496 -0.040127724 0 0
-4.9792643 -0.3371821 0.52495164 36 8
-5.0278416 -0.36081371 0.030015826 0 1
-4.9436455 -0.32909364 0.58956504 22 9
-4.9494438 -0.34710592 0.10519743 4 2
-4.9503374 -0.32660264 0.66278058 100 10
-5.0191312 -0.3526985 0.17323381 7 3
-4.9409528 -0.32175028 0.73316807 100 11
-4.9991388 -0.34681538 0.2437807 12 4
-4.8551211 -0.30817613 0.78003818 86 12
-4.8584037 -0.30489129 0.85350907 93 13
-3.8083215 -0.19018322 0.27000737 7 6
-4.851388 -0.30068225 0.92496872 89 14
-4.9624872 -0.33166701 0.45126534 1 7
-4.834415 -0.29495382 0.99350667 88 15
-5.0041308 -0.35087264 -0.039593369 0 0
-4.9629917 -0.32456097 0.521608 39 8
-5.0291786 -0.35042718 0.029634953 0 1
-4.9605503 -0.3205713 0.59236348 21 9
-4.9566784 -0.33782697 0.10456389 4 2
-4.9555411 -0.31659883 0.66332722 100 10
-5.0224514 -0.34250033 0.17283073 7 3
-4.9461179 -0.31173152 0.73384887 100 11
-5.010385 -0.33764791 0.24365313 12 4
-4.86588 -0.29919821 0.78266692 91 12
-4.8465657 -0.29331669 0.84847331 87 13
-3.8088598 -0.18593249 0.26985019 7 6
-4.8508191 -0.290344 0.92386234 93 14
-4.9874249 -0.32410765 0.4539963 1 7
-4.8393354 -0.28524467 0.99472368 88 15
-5.0053968 -0.34066057 -0.039974809 0 0
-4.9623208 -0.31392074 0.52089036 46 8
-5.0344191 -0.34052449 0.028929383 0 1
-4.965735 -0.31055629 0.59276587 27 9
-4.9519682 -0.32702687 0.10445249 3 2
-4.9568295 -0.30611748 0.66293418 100 10
-5.0098343 -0.33036375 0.17257088 7 3
-4.937819 -0.30020005 0.73079205 100 11
-5.0136485 -0.32742935 0.24331076 11 4
-4.8709078 -0.28949985 0.78348553 94 12
-4.8515391 -0.28365734 0.84942544 87 13
-3.7619057 -0.17621697 0.26513219 8 6
-4.8576021 -0.2807864 0.92567259 89 14
-4.9768696 -0.31227791 0.45204461 1 7
-4.8405571 -0.27511904 0.99434066 90 15
-5.0026646 -0.32996681 -0.039907992 0 0
-4.9772835 -0.30501294 0.52278936 54 8
-5.0356503 -0.33010501 0.028531581 0 1
-4.9630742 -0.29965541 0.59157228 34 9
-4.9809356 -0.32022774 0.10282093 3 2
-4.9658017 -0.29644802 0.66439164 100 10
-5.0269489 -0.3217943 0.17201731 7 3
-4.9256186 -0.2883673 0.72666669 100 11
-4.9930201 -0.31448114 0.2423556 10 4
-4.8720913 -0.27936748 0.78309667 94 12
-4.8470807 -0.27301401 0.8470422 93 13
-3.8098698 -0.17742319 0.26952597 7 6
-4.8532219 -0.27007315 0.92308939 91 14
-5.0056801 -0.30481946 0.45526519 1 7
-4.8453798 -0.26533782 0.99553967 88 15
-5.0275078 -0.32249612 -0.043046206 0 0
-4.9686599 -0.29350168 0.52074349 51 8
-5.028904 -0.31878066 0.028762072 0 1
-4.9525533 -0.28799295 0.58878756 32 9
-4.9979687 -0.31180558 0.10170746 2 2
-4.9669862 -0.28591281 0.66398072 100 10
-5.0400519 -0.31261769 0.17148888 5 3
-4.9325356 -0.27855998 0.72785652 100 11
-5.004117 -0.30519259 0.24219996 9 4
-4.865624 -0.26849666 0.78030527 94 12
-4.8613424 -0.26419896 0.85130149 96 13
-3.7588549 -0.16778748 0.2644425 8 6
-4.8395123 -0.25855789 0.91685021 93 14
-4.9792271 -0.29140198 0.4512319 2 7
-4.8428426 -0.25485057 0.99355108 88 15
-5.0207267 -0.31129524 -0.042539805 0 0
-4.9796057 -0.28402781 0.52196556 58 8
-5.033987 -0.30881941 0.028030723 0 1
-4.9595261 -0.27814874 0.5895614 43 9
-4.9672852 -0.29813462 0.10273731 2 2
-4.9526215 -0.27390113 0.6598509 100 10
-5.0391903 -0.30185556 0.17108893 6 3
-4.9470854 -0.26939884 0.73116148 100 11
-5.0111933 -0.29538587 0.24193311 7 4
-4.8609962 -0.25787538 0.77810764 86 12
-4.8680515 -0.25456721 0.85288972 93 13
-3.7513506 -0.16301137 0.26352829 8 6
-4.8535595 -0.24961844 0.9215554 89 14
-4.9882207 -0.28172278 0.4518452 2 7
-4.8439069 -0.2447083 0.99314451 90 15
-5.0178347 -0.30058497 -0.042496741 0 0
-4.974792 -0.27297673 0.52056122 72 8
-4.9993591 -0.29472205 0.030487865 1 1
-4.9644995 -0.26805887 0.58992946 38 9
-4.9623556 -0.28740403 0.10259831 3 2
-4.9614396 -0.26413184 0.66128075 100 10
-5.0223513 -0.28952655 0.17084685 7 3
-4.9481487 -0.25891131 0.73073584 100 11
-5.0202112 -0.2857061 0.24170485 7 4
-4.8639164 -0.24796164 0.77829611 94 12
-4.8596735 -0.24361478 0.84915596 90 13
-3.7517471 -0.15906066 0.26336735 8 6
-4.8601446 -0.23992726 0.92332983 91 14
-4.9734683 -0.26977837 0.44935682 3 7
-4.8357677 -0.23383628 0.98876143 86 15
-5.0465164 -0.29307109 -0.046135128 0 0
-4.9620547 -0.26129013 0.51784599 100 8
-5.0042896 -0.28521445 0.029759794 1 1
-4.9674697 -0.25775409 0.58989275 46 9
-4.9633341 -0.27730358 0.10218185 3 2
-4.9663334 -0.25394842 0.66177315 100 10
-5.0133715 -0.27847442 0.1705344 7 3
-4.939548 -0.24763054 0.72764951 100 11
-5.0132561 -0.27446771 0.24107581 8 4
-4.8705907 -0.23832704 0.7796706 86 12
-4.8531141 -0.2329061 0.84608215 90 13
-3.7322893 -0.15335166 0.26132518 9 6
-4.8611112 -0.22974755 0.92290735 91 14
-4.9843016 -0.26056755 0.4502241 4 7
-4.8421836 -0.2244765 0.99073553 80 15
-5.023747 -0.28039503 -0.043810099 0 0
-4.9551497 -0.25023302 0.51610649 100 8
-5.0032506 -0.27476645 0.029490411 1 1
-4.9449492 -0.24572009 0.58473372 49 9
-4.9562712 -0.26681021 0.10213646 3 2
-4.9634171 -0.24310745 0.6604054 100 10
-5.0183058 -0.2684148 0.17005372 8 3
-4.9385443 -0.23738548 0.7266947 100 11
-5.0042162 -0.26348093 0.24040873 9 4
-4.8734121 -0.22834195 0.77984095 91 12
-4.8596392 -0.22356649 0.84766012 93 13
-3.7405615 -0.15029198 0.26191762 9 6
-4.8545632 -0.21937844 0.9195776 85 14
-4.9753547 -0.24929135 0.44849801 7 7
-5.0285749 -0.27078509 -0.044695616 0 0
-4.9678278 -0.24112512 0.51763213 100 8
-4.9942131 -0.26363677 0.029858738 1 1
-4.9536695 -0.23594312 0.5858674 53 9
-4.9651055 -0.25742632 0.10134017 3 2
-4.9720578 -0.23350981 0.66181934 100 10
-5.0311623 -0.25897878 0.16947562 8 3
-4.9394412 -0.22694592 0.72624779 100 11
-5.0051093 -0.25306165 0.2399625 9 4
-4.870441 -0.21827419 0.77822757 91 12
-4.8623824 -0.21357217 0.84788835 71 13
-3.713099 -0.14422624 0.2591331 10 6
-4.974256 -0.23871726 0.44779328 12 7
-4.9813943 -0.21282621 1.0493069 1 15
-4.9745893 -0.23111556 0.5181548 100 8
-5.018888 -0.25539681 0.027476192 0 1
-4.9564748 -0.22566693 0.58580875 52 9
-4.9460144 -0.2457042 0.10182104 3 2
-4.9612665 -0.22215126 0.6585899 100 10
-5.032011 -0.24847302 0.16901833 8 3
-4.9460573 -0.21688314 0.72738057 100 11
-5.0059481 -0.24263872 0.23950826 10 4
-4.8655386 -0.20778354 0.77599782 72 12
-3.749146 -0.14308231 0.26232612 9 6
-4.9592509 -0.22717896 0.44529113 18 7
-4.9734249 -0.22051276 0.51736844 100 8
-4.9690123 -0.21599971 0.58770686 48 9
-4.9846282 -0.23855175 0.099621117 2 2
-4.9620647 -0.21164481 0.65812528 99 10
-5.0188446 -0.23693691 0.16871276 7 3
-4.9506989 -0.20663795 0.72797382 66 11
-5.0226879 -0.23335445 0.2394212 10 4
-3.7216239 -0.13726358 0.25954664 39 6
-4.9639735 -0.2171004 0.44534141 25 7
-4.9623556 -0.20932031 0.51495457 100 8
-4.9638858 -0.20515713 0.58605754 44 9
-4.9705811 -0.20158091 0.65949565 40 10
-5.0174389 -0.22244373 0.23880807 6 4
-3.7298365 -0.13396545 0.26011741 48 6
-4.9785461 -0.20757291 0.44665611 27 7
-4.8480225 -0.17383924 0.9893049 1 15
-4.9531937 -0.19836059 0.51286203 92 8
-4.9704504 -0.19500865 0.58675605 8 9
-3.7121885 -0.12910759 0.25827545 60 6
-4.8843975 -0.16972724 0.9274863 1 14
-4.9950547 -0.1980046 0.44821048 7 7
-4.8615146 -0.16419715 0.99437171 18 15
-4.9873376 -0.18971208 0.51787543 100 8
-4.8866501 -0.16369095 0.85286188 2 13
-3.736274 -0.1266005 0.26031578 56 6
-4.8589287 -0.15843791 0.91684455 31 14
-4.9758539 -0.1864967 0.44517982 7 7
-4.8584366 -0.15382962 0.99231219 68 15
-5.0170059 -0.20779184 -0.045634121 0 0
-4.2779994 -0.14390092 0.44728738 1 9
-4.8821664 -0.15775472 0.77783793 6 12
-4.8815408 -0.1532326 0.85039556 53 13
-3.7424495 -0.12300844 0.26068452 37 6
-4.8576088 -0.14821041 0.91563678 87 14
-4.9645157 -0.17554632 0.4431645 7 7
-4.8442841 -0.14317247 0.98550856 85 15
-5.0135632 -0.19730514 -0.045657694 0 0
-5.0447235 -0.19446278 0.022811443 0 1
-4.2724619 -0.13686462 0.44578889 37 9
-4.9944191 -0.16011314 0.66256422 1 10
-4.9596276 -0.15428728 0.72710752 16 11
-4.871212 -0.1472102 0.77378893 53 12
-4.8707137 -0.14266899 0.84594643 89 13
-3.7426381 -0.11910644 0.26049653 18 6
-4.8525085 -0.13790163 0.91297275 81 14
-4.8484421 -0.13311911 0.98659748 90 15
-5.0259356 -0.18763389 -0.04756093 0 0
-5.0053625 -0.18247813 0.02561751 0 1
-4.2668858 -0.12988964 0.44428834 8 9
-4.9841881 -0.17705336 0.096941322 3 2
-4.9637632 -0.14848053 0.65471131 45 10
-5.0364141 -0.17519069 0.16561061 0 3
-5.0722408 -0.17208529 0.23746961 1 4
-4.8831129 -0.13738357 0.77685094 90 12
-4.8560519 -0.13213769 0.84017777 90 13
-3.730865 -0.11477306 0.25920707 9 6
-4.8753099 -0.12824568 0.92116809 91 14
-4.8525357 -0.12336264 0.98769343 88 15
-5.0422287 -0.17801341 -0.049947441 0 0
-4.9898438 -0.17154843 0.026434183 2 1
-4.9534693 -0.14229229 0.58036029 8 9
-4.9985542 -0.16774036 0.095782846 3 2
-4.9700179 -0.13811287 0.65556479 84 10
-5.0248384 -0.16421294 0.16524705 4 3
-4.9354124 -0.13296415 0.71925896 100 11
-5.0087008 -0.1594166 0.23556302 7 4
-4.8892369 -0.12731305 0.77812254 91 12
-4.8620901 -0.12248248 0.84166861 100 13
-3.7748015 -0.1124168 0.26303959 8 6
-4.8607721 -0.11809437 0.9148854 91 14
-4.8565931 -0.11322528 0.98876321 88 15
-5.0267081 -0.16734269 -0.048568457 0 0
-4.9838095 -0.13721326 0.51437122 1 8
-5.0061235 -0.16228995 0.024614096 0 1
-4.9577546 -0.13197266 0.58061713 29 9
-4.9689636 -0.15642518 0.096712947 3 2
-4.9820485 -0.12815037 0.6577968 99 10
-5.0471716 -0.15480624 0.16444516 5 3
-4.937696 -0.122582 0.71926045 100 11
-5.0050564 -0.14885888 0.23495258 8 4
-4.8819275 -0.11731526 0.77525878 94 12
-4.8699799 -0.11245206 0.84379011 85 13
-3.7629895 -0.10803824 0.26174212 8 6
-4.8573766 -0.10788039 0.9129259 93 14
-4.8587508 -0.10337219 0.98905301 86 15
-5.0270214 -0.15702321 -0.049092233 0 0
-4.9821529 -0.12666021 0.51351714 33 8
-5.0183849 -0.15240142 0.023093998 0 1
-4.9659009 -0.12202557 0.58165914 28 9
-4.9812336 -0.14698872 0.095633686 3 2
-4.9706783 -0.11736652 0.6545161 100 10
-5.039484 -0.14400503 0.16401514 3 3
-4.9572868 -0.11274163 0.72398967 100 11
-5.0093441 -0.13888904 0.23452391 8 4
-4.8726649 -0.10703938 0.77178329 81 12
-4.8683662 -0.10260677 0.84263045 90 13
-3.8148718 -0.10523247 0.26626414 7 6
-4.8632426 -0.098092183 0.91459209 89 14
-4.8535137 -0.093138814 0.98616797 88 15
-5.0312519 -0.14681655 -0.050096273 0 0
-4.9764934 -0.11607169 0.51201725 49 8
-5.0545106 -0.14267494 0.019538522 0 1
-4.9720526 -0.1112726 0.58226532 22 9
-4.9715052 -0.13621557 0.09557727 3 2
-4.9631443 -0.10674323 0.65214634 100 10
-5.0497398 -0.13332945 0.16331303 3 3
-4.9556141 -0.10184463 0.72290307 100 11
-5.023592 -0.12837805 0.23425902 9 4
-4.8786325 -0.096935205 0.77303076 84 12
-4.8629389 -0.092096448 0.84011579 93 13
-3.7811155 -0.10029308 0.26295802 8 6
-4.8709402 -0.087562278 0.91693485 89 14
-4.8500676 -0.082620531 0.98404741 90 15
-5.0433712 -0.1367566 -0.052057326 0 0
-4.9767008 -0.10559688 0.51146972 46 8
-5.038775 -0.13182166 0.020328283 0 1
-4.9820652 -0.10083036 0.58365327 20 9
-4.9517269 -0.12569362 0.096025825 3 2
-4.9711328 -0.096264616 0.65341842 100 10
-5.021944 -0.12226513 0.1631541 4 3
-4.942296 -0.091301002 0.71868861 100 11
-5.0277824 -0.11792339 0.23378985 9 4
-4.8845491 -0.086768597 0.77426744 81 12
-4.8631172 -0.081965998 0.83958304 93 13
-3.8130546 -0.096507996 0.26562905 7 6
-4.8748465 -0.077311501 0.91783971 89 14
-4.8539152 -0.072418652 0.9850837 88 15
-5.0355825 -0.12620637 -0.051659226 0 0
-4.9709306 -0.09510085 0.5099591 39 8
-5.0229788 -0.12147592 0.021137357 0 1
-4.9684787 -0.090260349 0.58038378 18 9
-4.9798298 -0.11604583 0.094113588 3 2
-4.9810152 -0.085699804 0.65513325 97 10
-5.02808 -0.1122325 0.1625303 5 3
-4.9424343 -0.080849715 0.7181325 100 11
-5.015923 -0.10727711 0.23298436 9 4
-4.8846807 -0.076575235 0.77372456 86 12
-4.8670211 -0.071801886 0.84035414 93 13
-3.8131068 -0.092237189 0.26540118 7 6
-4.8675084 -0.067146681 0.91440809 89 14
-4.8595467 -0.062490582 0.98691416 86 15
-5.0436249 -0.11595069 -0.053167552 0 0
-4.9789276 -0.084641784 0.51066911 39 8
-5.0151033 -0.11103506 0.021254838 0 1
-4.9666076 -0.08013431 0.57945192 13 9
-4.9559474 -0.10598722 0.09477213 4 2
-4.986949 -0.075056478 0.65592557 99 10
-5.0401659 -0.10182892 0.1617887 5 3
-4.9560299 -0.070624828 0.72124219 100 11
-5.0120049 -0.097136766 0.23235758 9 4
-4.8732924 -0.066515386 0.76964009 81 12
-4.8708711 -0.061935417 0.84113401 85 13
-3.8131361 -0.088108793 0.26517785 7 6
-4.8619804 -0.057371162 0.91171217 93 14
-4.8614521 -0.05223351 0.98714542 88 15
-5.0396981 -0.10586025 -0.053238422 0 0
-4.9848952 -0.074463859 0.51106882 36 8
-5.0231161 -0.10077319 0.020016253 1 1
-4.9705734 -0.069623828 0.57965243 18 9
-4.9719648 -0.095990136 0.093426406 5 2
-4.9752989 -0.064914249 0.65264016 100 10
-5.0481992 -0.09129604 0.16109249 5 3
-4.961854 -0.060017452 0.72223151 100 11
-5.0280313 -0.086672306 0.23210333 9 4
-4.8733177 -0.05672168 0.769104 79 12
-4.8690038 -0.051800508 0.83992195 90 13
-3.8131447 -0.083838105 0.26494375 7 6
-4.8694601 -0.0470284 0.91403413 91 14
-4.8559475 -0.042139769 0.98422986 86 15
-5.0238066 -0.095422521 -0.051899821 0 0
-4.9730392 -0.064092264 0.50858754 29 8
-5.0250974 -0.090424344 0.019274473 1 1
-4.9823332 -0.058955312 0.58138406 12 9
-4.9759445 -0.085844263 0.092665076 6 2
-4.971386 -0.054408811 0.65114814 100 10
-5.0361791 -0.080755413 0.16068953 6 3
-4.9618311 -0.049462982 0.72164661 100 11
-5.0240078 -0.076162949 0.23144116 9 4
-4.8790255 -0.046463147 0.77030575 84 12
-4.8727517 -0.041545197 0.84066582 100 13
-3.8131309 -0.079567522 0.26470643 7 6
-4.8712912 -0.036758557 0.91418558 89 14
-4.8540692 -0.031995125 0.98287809 88 15
-5.0158043 -0.085134007 -0.051518023 0 0
-4.9729767 -0.053638358 0.50800252 28 8
-5.0429664 -0.079990178 0.017161995 1 1
-4.9803023 -0.048438653 0.5804078 9 9
-4.9818692 -0.07564538 0.091793239 6 2
-4.979104 -0.043682303 0.65236783 100 10
-5.0341039 -0.070250407 0.16012996 6 3
-4.9559617 -0.039055347 0.71949273 100 11
-5.0359249 -0.065516151 0.2310816 9 4
-4.8808584 -0.036248937 0.77032185 86 12
-4.8651104 -0.031594094 0.83747876 87 13
-3.8130951 -0.07529714 0.26446599 7 6
-4.8749342 -0.026407726 0.91504717 87 14
-4.8558149 -0.021739751 0.98308671 86 15
-5.0474596 -0.074661732 -0.055940896 0 0
-4.9787831 -0.043050028 0.50835657 24 8
-5.0269051 -0.069685578 0.017935425 2 1
-4.966444 -0.038244382 0.57712013 8 9
-4.9817486 -0.065454841 0.091214389 6 2
-4.9828715 -0.032981895 0.65267038 100 10
-5.0379729 -0.059682898 0.15946862 6 3
-4.946178 -0.028828733 0.71629512 100 11
-5.0237942 -0.05513946 0.23025216 9 4
-4.888371 -0.025825568 0.77208948 89 12
-4.8763099 -0.021049067 0.84081805 100 13
-3.8130369 -0.071027376 0.26422238 7 6
-4.8710632 -0.016304061 0.91302574 89 14
-4.8630252 -0.011236787 0.98563528 86 15
-5.0353789 -0.064381637 -0.055095285 0 0
-4.9805861 -0.032511216 0.50806928 22 8
-5.022747 -0.059374124 0.017682046 2 1
-4.9662676 -0.027773879 0.57651788 8 9
-4.9775805 -0.055332154 0.090831846 6 2
-4.990478 -0.022111803 0.65386599 100 10
-5.0537825 -0.048844419 0.15860325 6 3
-4.9556427 -0.018013544 0.71828759 100 11
-5.0196075 -0.04471609 0.22957136 9 4
-4.8843651 -0.015761994 0.77032816 79 12
-4.8780093 -0.010771871 0.84088117 93 13
-3.7731266 -0.06781482 0.2604478 8 6
-4.8671393 -0.0062424242 0.910999 89 14
-4.8665028 -0.00082670152 0.98660707 86 15
-5.0272169 -0.054157194 -0.05473277 0 0
-4.9862823 -0.021821037 0.50840187 25 8
-5.0304899 -0.048872344 0.016391397 1 1
-4.9640751 -0.017376192 0.57552505 7 9
-4.981348 -0.045077831 0.090034157 6 2
-4.9746628 -0.012061857 0.64963663 100 10
-5.0535412 -0.038232744 0.15798387 6 3
-4.9650517 -0.0070959255 0.72026622 100 11
-5.025362 -0.034067795 0.22906889 10 4
-4.878396 -0.0058251396 0.76797616 84 12
-4.8758774 -0.00065222383 0.83963209 87 13
-3.8128545 -0.062489487 0.26372576 7 6
-4.8743515 0.0043295175 0.91326994 89 14
-4.8588963 0.0090443715 0.98287904 86 15
-5.0229731 -0.043928325 -0.054856807 0 0
-4.9781055 -0.011605211 0.50652671 16 8
-5.0302186 -0.03883262 0.015799314 1 1
-4.9834046 -0.0061067864 0.57873112 7 9
-4.9850616 -0.034783997 0.089226544 6 2
-4.974371 -0.0014956072 0.64901257 100 10
-5.04526 -0.028211266 0.1575118 6 3
-4.9628353 0.0030309036 0.71914423 100 11
-5.0310607 -0.023359343 0.22855504 10 4
-4.8819275 0.004518792 0.76854491 84 12
-4.8680382 0.0088111311 0.83644366 90 13
-3.8326395 -0.057484493 0.26522434 6 6
-4.87778 0.014776647 0.91409552 89 14
-4.8549261 0.018705979 0.98073053 86 15
-5.0305963 -0.033764064 -0.056420058 0 0
-4.9817295 -0.0013035089 0.50654864 16 8
-5.0378637 -0.028561182 0.014507473 1 1
-4.9948401 0.0046481118 0.58041155 7 9
-4.9927258 -0.024664417 0.088222116 6 2
-4.9779301 0.0089075118 0.64930159 100 10
-5.0409269 -0.0181344 0.15696901 6 3
-4.9528513 0.01273644 0.71594667 100 11
-5.0347166 -0.013017043 0.22801548 10 4
-4.8987861 0.015291654 0.77321434 89 12
-4.8677053 0.018625289 0.83585513 90 13
-3.7608328 -0.056275565 0.25868672 8 6
-4.8774381 0.024695367 0.91350001 87 14
-4.8582587 0.028789662 0.98169959 86 15
-5.046103 -0.023271568 -0.058967084 0 0
-4.9793825 0.0087464675 0.50562334 9 8
-5.0175638 -0.018824913 0.015615553 2 1
-4.9709272 0.013695821 0.57521766 7 9
-4.9803782 -0.015204713 0.088249058 6 2
-4.9892197 0.01977168 0.6513778 100 10
-5.0405259 -0.0075904131 0.15633059 6 3
-4.9466629 0.022907898 0.7137602 100 11
-5.0303278 -0.0029730201 0.22732674 9 4
-4.8984032 0.025214426 0.77261269 81 12
-4.8767476 0.029367372 0.83848858 93 13
-3.7805829 -0.051475085 0.26019162 8 6
-4.8733191 0.034367345 0.91146684 87 14
-4.8652005 0.03950271 0.98419821 86 15
-5.0416999 -0.013007492 -0.059115946 0 0
-4.9730244 0.018908262 0.50404692 11 8
-5.037035 -0.0077193081 0.013240337 2 1
-4.9665608 0.023963168 0.57381475 7 9
-4.9839344 -0.004857704 0.087415993 6 2
-4.9926548 0.030646361 0.65162319 100 10
-5.0520563 0.0034865439 0.15547234 6 3
-4.9616365 0.034340642 0.71724725 100 11
-5.0278711 0.0074735135 0.22664583 10 4
-4.8922267 0.03510309 0.77023363 91 12
-4.8857327 0.040209308 0.84110826 96 13
-3.7605035 -0.048420124 0.25820667 8 6
-4.8672729 0.044206202 0.90869319 85 14
-4.8629017 0.049613789 0.98278809 90 15
-5.0531111 -0.0021208525 -0.061223865 0 0
-4.988308 0.030298464 0.50589049 11 8
-5.0245976 0.0021636784 0.013645589 2 1
-4.9758601 0.035042293 0.57506543 6 9
-4.9854412 0.0054337233 0.086678594 7 2
-4.9804716 0.040547296 0.64827478 100 10
-5.0575342 0.014385492 0.1547066 6 3
-4.966908 0.045281708 0.71813899 100 11
-5.029355 0.018105522 0.22602583 10 4
-4.8821836 0.044657633 0.7666862 89 12
-4.8871126 0.050595254 0.84111965 100 13
-3.7722406 -0.043739077 0.25899422 8 6
-4.8723531 0.054835379 0.91020054 87 14
-4.8623862 0.059847966 0.98215032 88 15
-5.0485997 0.0081371814 -0.061387748 0 0
-4.9798698 0.040315688 0.5039888 11 8
-5.0519085 0.013903752 0.010537446 2 1
-4.9811811 0.045956999 0.5755437 6 9
-4.9888878 0.015846469 0.085826218 7 2
-4.979907 0.051141873 0.64761007 100 10
-5.0509748 0.02468317 0.15414935 6 3
-4.9721217 0.056281418 0.71901929 100 11
-5.0307827 0.028755166 0.22539684 11 4
-4.8835402 0.054976419 0.7666285 91 12
-4.8752346 0.059955195 0.83658636 100 13
-3.7879276 -0.038683925 0.26011494 7 6
-4.8773766 0.065521866 0.91169667 91 14
-4.8599825 0.069922492 0.9807272 98 15
-5.026197 0.017420545 -0.059346914 1 0
-4.9832077 0.051077083 0.50394446 20 8
-5.0175047 0.022193849 0.012891501 3 1
-4.9923201 0.057359874 0.57714581 20 9
-4.9862981 0.02595298 0.085284472 8 2
-4.9773436 0.06158559 0.64649111 100 10
-5.0403929 0.034323074 0.15368533 11 3
-4.9618616 0.066126987 0.71577442 100 11
-5.0541086 0.040801466 0.22511436 14 4
-4.9134545 0.067643002 0.77527893 100 12
-5.0414019 0.045283124 0.29627651 1 5
-4.8878241 0.071259513 0.84046888 100 13
-3.8135238 -0.032785736 0.26207882 7 6
-4.8935127 0.077242106 0.91745806 100 14
-4.9868717 0.052428693 0.4333795 1 7
-4.8740649 0.081125811 0.98631608 100 15
-5.0374403 0.028408006 -0.061484486 3 0
-4.9805775 0.061429679 0.50296199 64 8
-5.0228205 0.032865748 0.0116992 5 1
-4.9877553 0.067303002 0.57573241 54 9
-5.0016174 0.036816344 0.083791047 12 2
-5.0019321 0.074212134 0.65160912 100 10
-5.0477014 0.045381859 0.15285644 7 3
-4.941946 0.074707255 0.70998365 100 11
-5.031498 0.04961808 0.22410306 11 4
-4.9127865 0.077984571 0.77461338 100 12
-5.0168028 0.054242432 0.29437622 1 5
-4.8777542 0.080328941 0.83659661 100 13
-3.7894061 -0.030405927 0.25976461 7 6
-4.8742499 0.085515901 0.90969187 100 14
-4.9149103 0.057472721 0.42406741 5 7
-4.86238 0.090364426 0.98099148 100 15
-5.0367613 0.038425446 -0.062133759 1 0
-4.9917059 0.07252115 0.50415635 14 8
-5.0280781 0.043595314 0.010495394 3 1
-4.984972 0.046023026 0.083988607 8 2
-5.0012197 0.084562957 0.65093666 75 10
-5.0409865 0.055535167 0.15228489 0 3
-4.9624023 0.087039202 0.71494609 46 11
-5.0148106 0.058995828 0.22316925 2 4
-4.8892174 0.085869864 0.76700515 100 12
-5.0638685 0.068390042 0.29610437 1 5
-4.8789225 0.090710521 0.83657789 72 13
-3.8129544 -0.024390221 0.26153466 7 6
-4.8679476 0.095205843 0.9068898 71 14
-4.8330526 0.060956955 0.41360053 9 7
-4.8744907 0.10189614 0.98575616 67 15
-4.9476199 0.0793394 0.49669021 13 8
-4.9236445 0.08288528 0.56230384 11 9
-4.9722691 0.055352017 0.083971798 1 2
-4.8942523 0.091208175 0.69632602 14 11
-4.9960866 0.068047553 0.22220829 1 4
-4.9635105 0.071077228 0.29040179 1 5
-4.8630857 0.09940125 0.8307423 18 13
-3.8126321 -0.020124055 0.26125342 7 6
-4.8374238 0.10232419 0.89484364 19 14
-4.7729692 0.065468878 0.40580678 11 7
-4.8242116 0.10689817 0.96414036 46 15
-4.8700571 0.082638055 0.48402363 11 8
-4.8446093 0.08574374 0.546592 10 9
-4.971468 0.065485299 0.083298683 1 2
-4.8578887 0.092204839 0.61711574 12 10
-4.8299527 0.095034033 0.67876935 11 11
-4.9115596 0.071415663 0.22027454 1 4
-4.8000317 0.097258329 0.73904502 13 12
-4.8631806 0.072721794 0.28476065 1 5
-4.7888455 0.10172692 0.80492508 16 13
-3.7725873 -0.019396767 0.25759652 8 6
-4.7938633 0.10769263 0.87784064 14 14
-4.7445254 0.072262555 0.40185344 16 7
-4.7592649 0.1097036 0.93635547 13 15
-4.7905421 0.084929407 0.47109759 12 8
-4.7792749 0.089129463 0.53355432 10 9
-4.7910862 0.095379859 0.60137814 13 10
-4.7425823 0.095737025 0.65512192 12 11
-4.8350201 0.074618176 0.2185075 1 4
-4.7439985 0.10099697 0.72163516 12 12
-4.7907352 0.075876683 0.28056073 1 5
-4.7127399 0.1030408 0.77851033 13 13
-3.8119211 -0.011597544 0.26068172 7 6
-4.7372856 0.11109747 0.85589564 13 14
-4.7259407 0.079721853 0.39909875 15 7
-4.7163043 0.11439413 0.91789961 12 15
-4.7346449 0.088791221 0.46189103 11 8
-4.7256737 0.093055531 0.52280265 10 9
-4.8424006 0.074493214 0.089028254 1 2
-4.7242956 0.097844973 0.58568132 13 10
-4.6898417 0.099345386 0.64071214 11 11
-4.7545185 0.076656327 0.21673031 1 4
-4.6898713 0.10435121 0.70483601 13 12
-4.7461443 0.080977783 0.27777347 1 5
-4.6667519 0.10705757 0.76243705 12 13
-3.7718687 -0.0112902 0.25704691 8 6
-4.6621456 0.11165683 0.82689738 13 14
-4.7093019 0.087191746 0.39658675 13 7
-4.6605225 0.11703414 0.89405483 12 15
-4.6925101 0.093542919 0.45485356 13 8
-4.6701241 0.096200347 0.51170897 11 9
-4.8415041 0.083957657 0.08837831 1 2
-4.6769037 0.10179618 0.57444423 12 10
-4.6371055 0.10239109 0.62633407 13 11
-4.6939468 0.079838097 0.21527834 1 4
-4.6205373 0.10530894 0.68345886 13 12
-4.7015476 0.085617378 0.275011 1 5
-4.6207628 0.11057958 0.74639094 13 13
-3.8111215 -0.003079623 0.2600978 7 6
-4.609304 0.11420082 0.80644512 14 14
-4.6531396 0.090228125 0.38936532 12 7
-4.6084094 0.11953893 0.87179029 13 15
-4.6366215 0.096302763 0.44570896 13 8
-4.62044 0.099436492 0.50176811 13 9
-4.7411985 0.083611965 0.09333694 1 2
-4.6217647 0.10432559 0.56147069 13 10
-4.5843782 0.10487485 0.61198831 15 11
-4.6333899 0.082395732 0.2138629 1 4
-4.5740376 0.10837007 0.66903436 15 12
-4.6291723 0.086526245 0.27094483 1 5
-4.5672607 0.11264384 0.72780484 13 13
-3.8106885 0.0011757016 0.25980133 7 6
-4.560183 0.11665978 0.78744078 13 14
-4.6266232 0.09574455 0.38572299 16 7
-4.5526795 0.12069908 0.84803444 14 15
-4.5925255 0.099866748 0.43842077 15 8
-4.5883517 0.10399456 0.49522725 15 9
-4.6409812 0.08195971 0.098380297 1 2
-4.5705128 0.10675061 0.54941219 16 10
-4.5393705 0.1074978 0.59972662 15 11
-4.6007137 0.087105423 0.21286936 1 4
-4.5370426 0.11217165 0.65751266 15 12
-4.5845938 0.090107933 0.26824313 1 5
-4.5138044 0.11385751 0.70927215 14 13
-3.8102489 0.0052868873 0.25951183 7 6
-4.518518 0.119325 0.77131337 15 14
-4.5763917 0.098473296 0.37926191 15 7
-4.5042491 0.12257096 0.82737952 15 15
-4.5406179 0.10172799 0.42996642 16 8
-4.5367289 0.10603905 0.48496845 15 9
-4.6400514 0.090388775 0.097782597 1 2
-4.5270457 0.10936297 0.53916365 17 10
-4.6278582 0.093986586 0.15557486 1 3
-4.5096841 0.11195906 0.59153056 16 11
-4.5441599 0.089026377 0.21156907 1 4
-4.5000772 0.11530809 0.64603209 15 12
-4.5320854 0.092294246 0.26518819 1 5
-4.479104 0.11738713 0.69715881 14 13
-3.8097723 0.0095372498 0.25920936 21 6
-4.4823871 0.12261423 0.75730968 16 14
-4.530117 0.10116582 0.37329885 15 7
-4.468617 0.12577847 0.81214976 16 15
-4.5181112 0.1071087 0.42605829 18 8
-4.5046096 0.11010666 0.47845018 18 9
-4.5874972 0.092927545 0.10015473 1 2
-4.4912925 0.11283767 0.53067768 17 10
-4.4589076 0.11319649 0.57777935 20 11
-4.4876299 0.090365499 0.21030428 1 4
-4.4668789 0.118862 0.63570094 18 12
-4.5271854 0.099795252 0.26442575 1 5
-4.4387779 0.1197319 0.68314677 21 13
-3.8092737 0.013784759 0.25890392 21 6
-4.4370008 0.12414667 0.73980147 19 14
-4.4996161 0.10541013 0.36922666 20 7
-4.4256868 0.12749529 0.7938621 23 15
-4.5793605 0.090736523 -0.011640847 1 0
-4.4759932 0.10963009 0.41914612 30 8
-4.5908456 0.096688643 0.043270573 1 1
-4.4646983 0.11276926 0.47046989 32 9
-4.5072069 0.091620296 0.10417193 1 2
-4.4632721 0.11701874 0.5239656 37 10
-4.5147533 0.096926004 0.15694104 1 3
-4.431139 0.11719117 0.57013023 45 11
-4.4648623 0.095348999 0.20948161 7 4
-4.4279933 0.12122859 0.62367111 46 12
-4.5024652 0.10444456 0.26274568 9 5
-4.4172049 0.12445512 0.6755501 55 13
-3.8146825 0.018808022 0.25908396 54 6
-4.411984 0.12830862 0.73007238 60 14
-4.4593 0.10775857 0.36402988 67 7
-4.4028664 0.13163577 0.78408146 56 15
-4.531075 0.093164936 -0.0061208308 1 0
-4.4573879 0.11498606 0.41586876 75 8
-4.5384254 0.098577425 0.047493845 1 1
-4.4462366 0.11780794 0.46659523 56 9
-4.4844685 0.096393421 0.10489941 5 2
-4.4371777 0.12118672 0.51770639 73 10
-4.4998798 0.10297568 0.15669341 5 3
-4.4301958 0.12462723 0.56958544 69 11
-4.4837604 0.10528107 0.20917478 8 4
-4.4308009 0.12952098 0.62424934 80 12
-4.4697828 0.10804853 0.2606883 12 5
-4.4293652 0.13393383 0.67947185 70 13
-3.8181045 0.023477465 0.25910494 66 6
-4.4239721 0.13781703 0.73445141 88 14
-4.442574 0.11324666 0.3616147 94 7
-4.4091673 0.14052346 0.78658885 81 15
-4.5773425 0.10652015 -0.012799591 1 0
-4.4603271 0.12300898 0.41591823 100 8
-4.5373964 0.10643776 0.046913311 1 1
-4.4705076 0.12923864 0.47081786 78 9
-4.4854474 0.10427348 0.10421932 4 2
-4.4400606 0.12919806 0.51803046 77 10
-4.4968777 0.11045429 0.15616782 5 3
-4.4425707 0.13437967 0.5725463 82 11
-4.4946337 0.11459129 0.20873928 5 4
-4.433598 0.13759023 0.62483823 73 12
-4.4766812 0.11681035 0.26048803 10 5
-4.4302053 0.14199944 0.67953372 59 13
-3.8155601 0.027487993 0.25862545 54 6
-4.4266319 0.14620088 0.73528057 57 14
-4.4690847 0.12483424 0.36427832 73 7
-4.4117746 0.14887391 0.7875495 52 15
-4.4631882 0.13132477 0.41594034 52 8
-4.5876551 0.12105611 0.0414709 1 1
-4.471384 0.13735892 0.47060177 33 9
-4.5358505 0.11883512 0.10059689 1 2
-4.4775772 0.14292921 0.52617353 34 10
-4.4918571 0.11763367 0.15568629 1 3
-4.4567971 0.14457537 0.57599455 39 11
-4.5034695 0.1237397 0.20826755 2 4
-4.4703712 0.15150203 0.63566852 35 12
-4.4716644 0.12393896 0.25972939 6 5
-4.4534445 0.15381461 0.68722981 28 13
-3.8129959 0.031474687 0.25814444 40 6
-4.4569378 0.15932232 0.74663544 30 14
-4.4562225 0.13079795 0.36231959 74 7
-4.4434552 0.16231003 0.80077255 30 15
-4.5751252 0.12254755 -0.014000341 1 0
-4.4640493 0.1393723 0.41565549 86 8
-4.5865073 0.12916663 0.04085958 1 1
-4.460566 0.14364506 0.46817666 65 9
-4.5070505 0.12284556 0.10165669 2 2
-4.4533305 0.14708665 0.52035594 60 10
-4.4788852 0.12363246 0.15539724 3 3
-4.4327621 0.14861782 0.56937069 58 11
-4.4805884 0.12835518 0.20744903 8 4
-4.4408779 0.15466806 0.62652242 57 12
-4.488349 0.13426815 0.25996244 12 5
-4.4205432 0.15624461 0.67582071 55 13
-3.8163254 0.036338881 0.2581414 59 6
-4.4225879 0.16145372 0.73340571 54 14
-4.4629698 0.13968883 0.36265463 100 7
-4.4077597 0.16404837 0.78561467 50 15
-4.5503802 0.12727608 -0.011520222 1 0
-4.4726777 0.14869006 0.41655424 97 8
-4.5104084 0.12661916 0.047398314 1 1
-4.443902 0.14886628 0.46465537 86 9
-4.4920816 0.12857468 0.10189986 5 2
-4.4521856 0.15485677 0.51976377 75 10
-4.4955568 0.1339068 0.15436985 5 3
-4.4297152 0.155992 0.56828135 81 11
-4.4754968 0.13543525 0.20682287 7 4
-4.4302793 0.16080832 0.62308353 80 12
-4.4852214 0.14172091 0.25928017 10 5
-4.4268641 0.16528636 0.67777205 78 13
-3.8058412 0.039065078 0.25701925 7 6
-4.4214292 0.16922262 0.73281169 84 14
-4.473588 0.14928794 0.36343443 62 7
-4.4175048 0.17379326 0.78961533 74 15
-4.5727415 0.1385496 -0.015223518 1 0
-4.4617395 0.15486173 0.41447109 41 8
-4.5368114 0.13839883 0.044157922 1 1
-4.4349775 0.15523124 0.46260297 32 9
-4.4849911 0.13534379 0.10166967 4 2
-4.5414248 0.17824471 0.53954327 77 10
-4.9627233 0.21362984 0.14186093 5 3
-4.4476056 0.1670357 0.5727008 76 11
-5.0433416 0.23232368 0.21178551 8 4
-4.4838276 0.17836416 0.63896406 100 12
-4.5040278 0.18738762 0.70382017 99 13
-3.8051894 0.043290317 0.25669304 7 6
-4.425755 0.17801607 0.73431218 63 14
-4.4417143 0.18641651 0.7997185 72 15
-5.0618415 0.21976653 -0.080580086 0 0
-5.01581 0.21954677 -0.0027782023 0 1
-4.9828515 0.22069362 0.070584774 4 2
-4.9841762 0.26565057 0.63886964 90 10
-5.0736685 0.2416527 0.13816267 7 3
-4.9836345 0.27246976 0.71319342 94 11
-5.0495563 0.24419743 0.2110348 9 4
-4.8993149 0.26353267 0.7637254 76 12
-4.8792653 0.26662478 0.83118004 83 13
-3.8045154 0.047511786 0.2563639 7 6
-4.8992577 0.27707386 0.91409636 15 14
-4.8177814 0.22438666 0.40233696 9 7
-4.8757701 0.27967706 0.982427 96 15
-4.9851699 0.26345426 0.49298128 3 8
-5.0416651 0.23418477 -0.0062544048 1 1
-4.9937849 0.2717959 0.56691563 2 9
-5.006813 0.23499477 0.068209082 4 2
-4.9958882 0.27872509 0.64106095 93 10
-5.0719171 0.2523486 0.13732255 7 3
-4.9780807 0.28241265 0.711357 100 11
-5.059648 0.25680405 0.21030581 8 4
-4.9070506 0.27558604 0.76575172 81 12
-4.8757215 0.27646598 0.8297441 79 13
-3.7645323 0.04489544 0.25290012 8 6
-4.9177685 0.29144424 0.92096221 54 14
-4.8181548 0.234301 0.4018088 12 7
-4.8740644 0.28997442 0.9816153 100 15
-5.0583878 0.24070176 -0.082228303 0 0
-4.9950838 0.27608621 0.49391675 3 8
-5.0261583 0.24236447 -0.0057397485 1 1
-4.9881334 0.28167665 0.56534994 2 9
-5.0011392 0.24463755 0.067637295 5 2
-5.0056024 0.29157001 0.64280236 90 10
-5.0661683 0.26236588 0.13658026 7 3
-4.9705772 0.29193795 0.70901775 100 11
-5.0519266 0.2664589 0.20940778 9 4
-4.905304 0.28588459 0.76493406 81 12
-4.8777103 0.28739402 0.83019888 81 13
-3.803102 0.055943415 0.25569683 7 6
-4.8994527 0.2985484 0.91385132 82 14
-4.8380241 0.24779981 0.40352193 10 7
-4.8795462 0.30176389 0.98384547 100 15
-5.0683179 0.25309113 -0.084631115 0 0
-4.9971447 0.28736943 0.49366084 4 8
-5.0420313 0.25568205 -0.0082969666 1 1
-4.9940243 0.29372534 0.56595325 2 9
-4.9914837 0.2535556 0.067307442 4 2
-5.0037365 0.3022871 0.64194453 93 10
-5.0721874 0.27439907 0.13551301 7 3
-4.9744291 0.30365372 0.70966351 100 11
-5.0382543 0.27499023 0.20845923 9 4
-4.8997426 0.29541394 0.76297945 79 12
-4.8870745 0.29988092 0.83316833 81 13
-3.8023624 0.060153157 0.25535896 7 6
-4.8792796 0.30507874 0.9060508 80 14
-4.8363194 0.25747254 0.4027448 10 7
-4.8723001 0.31092528 0.98073184 100 15
-5.0547166 0.26159766 -0.083905548 0 0
-4.991374 0.29718065 0.49222308 3 8
-5.0519347 0.26814801 -0.010296673 1 1
-5.0075665 0.3073667 0.56798798 2 9
-5.0014458 0.26585898 0.065739661 4 2
-4.9941545 0.31145871 0.6393615 90 10
-5.0722337 0.28543934 0.13459471 6 3
-4.9915018 0.3181302 0.71377671 97 11
-5.0540547 0.28880247 0.2077415 8 4
-4.8997717 0.30606207 0.76271331 84 12
-4.8945065 0.31208685 0.83549047 85 13
-3.8016009 0.06435886 0.25501814 7 6
-4.8902526 0.31809425 0.91009116 72 14
-4.8267598 0.26562479 0.40106773 10 7
-4.8740458 0.32199371 0.98141932 100 15
-5.0010805 0.31002843 0.49311703 2 8
-5.0481105 0.27792162 -0.010927767 1 1
-5.0055976 0.31803808 0.56711805 2 9
-5.0113325 0.27827284 0.064154893 3 2
-4.9998388 0.32368955 0.64020693 90 10
-5.070322 0.29576817 0.13375172 6 3
-4.9895864 0.32847029 0.71293253 97 11
-5.0619059 0.30130345 0.20694399 9 4
-4.9091277 0.31871969 0.76525486 84 12
-4.8852348 0.32042131 0.83215904 83 13
-3.8008175 0.068560228 0.25467443 7 6
-4.8974833 0.3304314 0.91272271 38 14
-4.8367195 0.27724341 0.40164191 10 7
-4.8685751 0.33112797 0.97908509 100 15
-5.0977192 0.29055643 -0.091911733 0 0
-5.0068989 0.32184216 0.49344057 1 8
-5.0461969 0.2880255 -0.011758655 1 1
-5.034462 0.33474836 0.57202518 1 9
-5.0114002 0.28861395 0.063208669 4 2
-5.001698 0.33482623 0.64021218 90 10
-5.0722857 0.30683538 0.13279006 6 3
-4.9857244 0.33839303 0.71158606 100 11
-5.0756416 0.31467992 0.20620117 9 4
-4.9053493 0.32827467 0.76387072 81 12
-4.8833413 0.33031443 0.83134276 85 13
-3.8000395 0.072617501 0.25433946 7 6
-4.9120264 0.34416506 0.91814506 69 14
-4.8582945 0.29135728 0.40353015 9 7
-4.8738818 0.34270099 0.98130214 100 15
-5.0489397 0.29216895 -0.086417496 0 0
-5.0165243 0.33453637 0.49433136 2 8
-5.0441637 0.29846695 -0.012625217 1 1
-4.997786 0.33781812 0.5646975 1 9
-5.0074935 0.29821035 0.062506407 4 2
-5.0073166 0.3468188 0.64106137 93 10
-5.0780435 0.3190563 0.13167506 6 3
-4.9779587 0.34780693 0.7092154 100 11
-5.063796 0.32312313 0.20527247 8 4
-4.9165096 0.34115553 0.76697481 84 12
-4.8905873 0.34264666 0.83363128 81 13
-3.7992413 0.076670572 0.25400177 7 6
-4.8954172 0.35086852 0.9117558 75 14
-4.8485823 0.29950288 0.40183163 10 7
-4.8790545 0.35468438 0.98347729 98 15
-5.058547 0.30479908 -0.088879794 0 0
-5.0453501 0.3518568 0.49806994 1 8
-5.0420761 0.30889729 -0.013498902 1 1
-5.0033484 0.35011789 0.56523991 1 9
-5.0015135 0.30773228 0.061897486 3 2
-5.0051646 0.35754254 0.64016223 92 10
-5.0700102 0.32858542 0.13094908 5 3
-4.9890547 0.36141917 0.71178043 94 11
-5.057723 0.33301431 0.20435095 8 4
-4.9050679 0.34935519 0.76330173 79 12
-4.8996091 0.35550007 0.8365314 87 13
-3.798394 0.080858916 0.25364962 7 6
-4.8805437 0.35818207 0.9060365 79 14
-4.8427229 0.30839235 0.40057328 9 7
-4.8841581 0.36673555 0.98563892 94 15
-5.0875273 0.32135099 -0.094020844 0 0
-5.0354004 0.36096594 0.49600187 1 8
-5.0477409 0.32087508 -0.015168369 1 1
-5.0088382 0.36248726 0.56576812 2 9
-4.9876637 0.31561342 0.061796278 3 2
-4.9953351 0.36651841 0.63755459 88 10
-5.0756388 0.34087369 0.12981179 5 3
-4.9906235 0.37297565 0.71186149 100 11
-5.0613899 0.34490857 0.20348084 8 4
-4.8992009 0.35876116 0.76131022 79 12
-4.8956218 0.36536971 0.83503044 83 13
-3.7975249 0.085042432 0.25329465 7 6
-4.8857036 0.37021866 0.90793282 76 14
-4.8601165 0.32236937 0.40194088 10 7
-4.8748131 0.37530074 0.98173374 86 15
-5.0542088 0.32568324 -0.090651929 0 0
-5.0292721 0.37085438 0.49450877 1 8
-5.0513859 0.33252066 -0.016653627 1 1
-5.0180917 0.37580794 0.56699461 1 9
-5.0148172 0.3319152 0.058995306 4 2
-5.0006933 0.37895411 0.63834202 92 10
-5.0655489 0.34991339 0.12913486 5 3
-4.9940152 0.38500777 0.71242392 97 11
-5.0610781 0.35600871 0.20257795 9 4
-4.9026232 0.37036386 0.76211059 81 12
-4.8952751 0.37611085 0.83477503 87 13
-3.796634 0.089221209 0.25293678 7 6
-4.8835077 0.38051093 0.90705121 79 14
-4.8386345 0.32776943 0.39891997 9 7
-4.8690214 0.3846834 0.97933996 84 15
-5.0674858 0.33931693 -0.093691498 0 0
-5.057807 0.38873029 0.49817502 1 8
-5.0549631 0.34421384 -0.018151194 1 1
-5.0234318 0.38833627 0.56749249 1 9
-5.0028191 0.3401598 0.058753163 3 2
-4.9983745 0.38964158 0.63742095 92 10
-5.0749559 0.363107 0.12785578 5 3
-4.9879179 0.39479989 0.71051794 97 11
-5.0724239 0.36970481 0.20172188 8 4
-4.909708 0.38293457 0.7640152 84 12
-4.8874993 0.38501307 0.83201265 83 13
-3.7957215 0.093395099 0.25257608 7 6
-4.8994498 0.3954204 0.91306436 82 14
-4.8558831 0.34192798 0.40025681 9 7
-4.8757362 0.39726099 0.98222697 77 15
-5.0884285 0.35473964 -0.097826451 0 0
-5.0746565 0.40417811 0.50008994 1 8
-5.0545826 0.3551147 -0.019261569 1 1
-5.0057354 0.39539889 0.5637219 2 9
-5.0239296 0.35555568 0.056295037 3 2
-5.0035944 0.40217412 0.63818336 92 10
-5.0764751 0.37466949 0.12680319 5 3
-4.974247 0.40266845 0.70664704 100 11
-5.0602751 0.37823227 0.20074508 9 4
-4.9241667 0.39747262 0.7681334 86 12
-4.8944092 0.39761704 0.83423805 90 13
-3.7947872 0.097563818 0.25221258 7 6
-4.8898568 0.40389577 0.90940285 82 14
-4.8498211 0.3507717 0.39897195 9 7
-4.8805847 0.40945104 0.98434436 74 15
-5.0860252 0.36533505 -0.098754555 0 0
-5.020227 0.40253392 0.49143231 4 8
-5.0502567 0.36516404 -0.019979656 1 1
-4.9841976 0.40134338 0.55925095 4 9
-5.0157251 0.36461988 0.055778831 3 2
-5.0087419 0.41477439 0.63893157 93 10
-5.0701351 0.38447985 0.12598762 5 3
-4.9868603 0.41709098 0.70963132 97 11
-5.0539389 0.38799989 0.19979253 9 4
-4.9031887 0.403061 0.76165587 81 12
-4.899404 0.40982652 0.83582485 81 13
-3.7938313 0.10172749 0.25184625 7 6
-4.8838577 0.41324434 0.9071182 77 14
-4.8437176 0.35956284 0.39768407 9 7
-4.8889389 0.42267409 0.9879542 68 15
-5.1067781 0.38108578 -0.1029349 0 0
-5.0580921 0.42323485 0.49645576 1 8
-5.0517035 0.37649837 -0.021307379 1 1
-5.0275536 0.4234415 0.56678367 1 9
-5.0191498 0.37629443 0.054467648 3 2
-4.9986601 0.42356399 0.63629806 95 10
-5.0851603 0.39923972 0.1244773 4 3
-4.9975038 0.43117371 0.71210563 94 11
-5.0670156 0.40233025 0.19890282 9 4
-4.9007812 0.41333452 0.76074493 79 12
-4.9061632 0.42259458 0.83801967 83 13
-3.7928538 0.10588576 0.25147712 7 6
-4.8850636 0.42451128 0.90758038 79 14
-4.8530121 0.37213433 0.39811048 9 7
-4.8650594 0.42712179 0.97800499 60 15
-5.096509 0.39000991 -0.10280252 0 0
-5.0670161 0.43703756 0.49718505 1 8
-5.0589018 0.38920641 -0.023252696 2 1
-5.0440483 0.43913016 0.56934023 1 9
-5.0108514 0.38527241 0.05394274 3 2
-4.9998941 0.43522826 0.63618469 95 10
-5.0903664 0.41184238 0.1232622 5 3
-4.9986839 0.44289437 0.71212202 94 11
-5.0722246 0.41492084 0.19796863 9 4
-4.9131632 0.42759475 0.76426458 81 12
-4.8926735 0.42992941 0.83336711 85 13
-3.7918549 0.11003877 0.25110519 7 6
-4.8970661 0.43881968 0.91215205 79 14
-4.8583717 0.38383642 0.39809191 9 7
-4.873292 0.44037721 0.98159575 54 15
-5.1016397 0.40244415 -0.10484773 0 0
-5.0485973 0.39786723 -0.023384959 1 1
-5.0337811 0.44798276 0.56695855 1 9
-5.0199742 0.39838111 0.052210361 3 2
-5.0010614 0.44691893 0.6360603 93 10
-5.0760794 0.41976157 0.122679 4 3
-4.9904389 0.45210096 0.70969403 88 11
-5.0734754 0.42661455 0.19701022 9 4
-4.9198933 0.44047162 0.76610148 84 12
-4.8901472 0.44020161 0.8324393 85 13
-3.7444494 0.10232934 0.24728268 8 6
-4.8981314 0.45019761 0.91258794 80 14
-4.8598108 0.39460772 0.39763385 9 7
-4.885006 0.45476165 0.98667014 54 15
-5.0989866 0.41310188 -0.1058149 0 0
-5.0556598 0.41065603 -0.025354147 2 1
-5.0310841 0.45878711 0.56597692 1 9
-5.0309515 0.41207269 0.050325304 3 2
-5.013484 0.46172598 0.63843417 93 10
-5.0617666 0.42754659 0.12209952 4 3
-4.9840221 0.46175107 0.7077502 88 11
-5.0630293 0.43538329 0.19601744 9 4
-4.9154434 0.45031443 0.76460516 79 12
-4.8967123 0.45306781 0.83460093 81 13
-3.7589092 0.11026181 0.2480692 8 6
-4.8883023 0.45846763 0.90890396 79 14
-4.8573446 0.40438691 0.39674175 9 7
-4.8823948 0.46510759 0.98572612 50 15
-5.0962791 0.42374519 -0.1067892 0 0
-5.0510569 0.42065606 -0.026109159 2 1
-5.0359268 0.47166464 0.56638443 1 9
-5.0205536 0.42053202 0.049914449 3 2
-5.0145049 0.47352847 0.63828266 93 10
-5.1055293 0.45004293 0.1195302 4 3
-4.9887633 0.47451428 0.70871222 86 11
