# .PCD v0.7 - Point Cloud Data file format
VERSION 0.7
FIELDS x y z intensity ring
SIZE 4 4 4 4 2
TYPE F F F F U
COUNT 1 1 1 1 1
WIDTH 1188
HEIGHT 1
VIEWPOINT 0 0 0 1 0 0 0
POINTS 1188
DATA ascii
-5.1447554 0.64369589 0.25652769 1 0
-5.0712795 1.2603154 0.19426806 6.1999998 0
-5.0980492 1.2054968 0.20165733 4.1428571 0
-5.0853062 1.1046278 0.21089384 3 0
-5.0795965 1.0412709 0.21670939 4.8333335 0
-5.076684 0.96090221 0.22421545 6 0
-5.0682631 0.87990159 0.23124778 6.25 0
-5.070014 0.82342482 0.2365099 4.6666665 0
-5.0750113 0.7176916 0.24615861 1 0
-5.0814624 0.65238738 0.25211582 1.25 0
-5.0243702 0.06149894 0.29215217 1 0
-4.9798813 1.2616458 0.18791042 5.8333335 0
-4.9547596 0.07454899 0.2532025 1 0
-4.9173837 2.3243575 0.16904421 4.6666665 0
-4.9102888 1.2738311 0.18180943 4 0
-4.8697987 0.076078579 0.25632042 1 0
-4.8589959 2.3390267 0.16126719 6.5 0
-4.8347597 1.2803254 0.17580394 2 0
-4.8298421 0.080607429 0.21594085 1 0
-4.7495279 1.2820758 0.16953015 5.8888888 0
-4.7393794 0.081418812 0.2141854 1 0
-4.6576872 2.9494519 0.077833459 5 0
-4.6722622 1.2891617 0.16312486 6.4000001 0
-4.6535044 0.085918114 0.21226026 1 0
-4.5462484 -4.1351461 0.40520787 3 0
-4.5527687 -4.2140226 0.40644318 1 0
-4.6133814 2.9701841 0.070551887 2.3333333 0
-4.5648794 1.3429431 0.14901513 5.5 0
-4.5843658 1.2979158 0.15560801 6.3846154 0
-4.5612431 0.092567086 0.21005265 1 0
-4.497735 -4.1643934 0.39941913 1 0
-4.533031 2.9790804 0.060201034 1.25 0
-4.5499978 2.7190292 0.088701427 2 0
-4.5516429 2.6127384 0.099646792 1 0
-4.5391922 2.5784023 0.1016774 1 0
-4.4797707 1.6901076 0.10082788 4 0
-4.4743414 1.4434962 0.13018775 6 0
-4.5008163 1.3463696 0.14366813 3.5384614 0
-4.4840627 0.13344789 0.18158568 4.5454545 0
-4.4855876 0.10811384 0.18281429 4 0
-4.4701056 -1.1468967 0.23582041 4.5 0
-4.4749451 -1.1902467 0.25677896 7.5999999 0
-4.4744287 -1.2726089 0.26925391 7.5384617 0
-4.4645338 -1.3551182 0.26282912 8.8000002 0
-4.4441209 -1.4306731 0.29729217 8 0
-4.4392357 -1.5115533 0.2964623 6.5999999 0
-4.4435134 -1.5835384 0.29626423 6.75 0
-4.4428067 -1.6627169 0.29549152 5.6666665 0
-4.4304132 -1.7676631 0.29333496 3.5 0
-4.4440355 -1.8424547 0.29355597 1 0
-4.4354596 -1.9084471 0.29193193 1.6 0
-4.4233899 -1.9865172 0.28973669 5 0
-4.416091 -2.0393884 0.28825977 9 0
-4.4327192 -4.150013 0.39133155 1 0
-4.4629316 2.9864576 0.051135957 1.4285715 0
-4.4685731 1.6807793 0.10101493 4.1428571 0
-4.4623833 1.6001346 0.11036458 6 0
-4.4615746 1.5222058 0.11973472 6 0
-4.4573803 1.4430283 0.12887058 5.75 0
-4.4509692 1.3725129 0.13670012 3.7142856 0
-4.4068136 -2.0794134 0.28676647 9.666667 0
-4.4093022 -2.1501458 0.28577608 9 0
-4.3879023 -2.2242165 0.28244001 5.5 0
-4.3856735 -2.319752 0.28041148 6.5 0
-4.3851485 -2.3843272 0.27906752 6 0
-4.3823686 -2.4342821 0.27777618 6 0
-4.3636513 -2.8224335 0.37475282 1 0
-4.3660583 -2.8815727 0.37548563 1.5 0
-4.355547 -2.9157321 0.37449908 2 0
-4.3805604 2.9742854 0.042547017 3.4444444 0
-4.3015723 -1.270484 0.22541438 3 0
-4.2906718 3.0086982 0.028131872 1 0
-4.2985554 2.9614942 0.03399013 3.1428571 0
-4.2247868 -1.224106 0.22284369 5 0
-4.2070951 -1.2314097 0.22172712 3 0
-4.2008305 -1.9060466 0.27100086 4 0
-4.1567025 -3.823751 0.35539693 4.5 0
-4.1002765 -1.7736928 0.26412633 8 0
-4.0974107 -1.7982734 0.2633968 7.5 0
-4.1305389 -3.8403234 0.35218096 5 0
-4.0693569 -4.4342737 0.34673566 4 0
-4.1358051 2.987309 0.011397883 6.2222223 0
-4.051507 -4.4593267 0.34452742 7 0
-4.0571756 2.9802017 0.0023908764 4.375 0
-4.026659 2.4490335 -0.042931229 1 0
-4.028513 2.431169 -0.040276378 1 0
-3.9655552 3.0351424 -0.014894694 1 0
-3.9895983 2.9895864 -0.007055223 3.5 0
-3.9776764 2.4577799 -0.049522564 2.3333333 0
-3.9857397 2.4012053 -0.040840298 2 0
-3.9125943 2.4824092 -0.060206115 1 0
-3.7848697 2.3189452 -0.052021965 1 0
-3.766932 2.2494678 -0.04439494 1 0
-3.6087236 -1.3963886 0.17346215 1 0
-3.5251994 -3.7448483 0.27331775 12 0
-3.466568 2.3152182 -0.0898197 1 0
-3.4281852 2.3116815 -0.094176769 1.4 0
-3.4366581 2.2794163 -0.08850053 2 0
-3.2641253 -1.9120712 0.10372362 1 0
-3.2543113 -1.9417051 0.16648716 1 0
-3.2040546 -1.9677972 0.092366949 1 0
-3.1583223 3.111191 -0.13026682 1 0
-3.1343539 3.1119778 -0.13370275 1 0
-2.6943064 3.0803339 -0.19351017 1.25 0
-2.6683056 3.0893514 -0.1983214 1 0
-2.4580843 2.4201434 -0.25039557 12.4 0
-2.3911111 2.8864629 -0.21818304 5.3333335 0
-2.3410616 1.7133505 -0.17056262 1 0
-2.3481784 1.6091937 -0.18788993 1.25 0
-2.3176198 2.8867085 -0.22950488 19.333334 0
-2.3291166 1.6875695 -0.16907325 1 0
-2.3243859 1.6123133 -0.19283205 3.5714285 0
-2.2920086 1.5764385 -0.19040525 8.5 0
-2.2198234 -0.89545906 -0.095142812 1 0
-2.2387176 2.8902609 -0.24210846 12.1 0
-2.223424 1.5955994 -0.20693263 4.8000002 0
-2.2455184 1.580508 -0.20266736 6.25 0
-2.1477494 -0.53617418 -0.1321806 1 0
-2.1773756 -0.60876167 -0.11058351 1.2 0
-2.1642582 -0.66308558 -0.13424444 1 0
-2.1809111 -0.85625172 -0.076796532 4.0454545 0
-2.1947567 -0.9178434 -0.08582747 1.4285715 0
-2.164619 -0.97242451 -0.072211057 2 0
-2.1582713 2.8942389 -0.25509757 8.8888893 0
-2.0931952 0.49160588 -0.14412248 2 0
-2.1029024 0.43751085 -0.13376236 2 0
-2.116374 0.35713667 -0.17703396 1.25 0
-2.1017079 -0.47201723 -0.12105829 3 0
-2.0969315 -0.52545834 -0.11125496 1.5 0
-2.1088035 -0.59859037 -0.099351257 29.766666 0
-2.103318 -0.69154185 -0.099648356 1.4 0
-2.0802627 -0.73793769 -0.10428539 1.5 0
-2.0826898 -0.89657456 -0.11215046 1.5 0
-2.0950596 2.968802 -0.27294302 1 0
-2.0386574 2.8712716 -0.27154261 1 0
-2.0752339 0.49531311 -0.14971673 2 0
-2.0672224 -0.46170917 -0.15859357 1 0
-2.039649 -0.5273217 -0.11691353 1.3333334 0
-2.0573473 -0.5782758 -0.085642338 2 0
-2.0562115 -0.71937251 -0.089439929 2 0
-2.0066345 -0.90723461 -0.096745312 4.4285712 0
-2.0224552 2.9451485 -0.2819199 1 0
-2.0370212 2.8351526 -0.2679891 1 0
-2.0346212 2.7819417 -0.26275718 1 0
-1.964682 1.0393423 -0.20940313 1 0
-1.9319777 0.074216157 -0.18609834 1 0
-1.9211893 0.030062906 -0.15816724 7.1999998 0
-1.9217807 -0.053367537 -0.16519022 6.4117646 0
-1.9171193 -0.12253404 -0.15653217 7.9000001 0
-1.9159108 -0.21599944 -0.16528997 6.0999999 0
-1.9159631 -0.26100498 -0.17225531 3.6666667 0
-1.8965611 -0.76807261 -0.08789584 2.5 0
-1.9422164 -0.82896 -0.12486857 2 0
-1.9633518 -0.91630244 -0.10635886 2.3333333 0
-1.9157532 1.083528 -0.22713971 1 0
-1.8868564 0.078473061 -0.1799795 1.5 0
-1.9049362 0.034791082 -0.18055427 4.909091 0
-1.903891 -0.042080514 -0.15603006 6.909091 0
-1.9029758 -0.13056454 -0.16073555 8.5 0
-1.9020118 -0.19919568 -0.15173024 7.5882354 0
-1.8912088 -0.26340905 -0.14840639 4.875 0
-1.8688017 -0.77853423 -0.094948083 3 0
-1.8288161 -0.87458533 -0.10592932 7 0
-1.847898 -0.92205787 -0.12230283 7 0
-1.8077941 -1.7132251 -0.064531386 5.75 0
-1.8249133 0.097134992 -0.22490048 1 0
-1.8155618 0.035158575 -0.17700258 2 0
-1.8143134 -0.78953111 -0.10871273 1 0
-1.790507 -0.86001509 -0.1153166 5.8333335 0
-1.7492725 -1.7017378 -0.075841308 2.3333333 0
-1.7568431 -2.0354676 -0.080027759 5.4000001 0
-1.7600161 -2.0986667 -0.080653578 1 0
-1.7235972 -2.2561927 -0.090725839 3 0
-1.7226923 -3.0259807 0.0046013892 2.5 0
-1.7081788 -3.3084049 0.00398992 1 0
-1.6787245 -0.84689075 -0.14324218 2.5 0
-1.6876487 -2.0202711 -0.093002319 7.6666665 0
-1.7025113 -2.2921691 -0.09543553 1.5 0
-1.708374 -2.3489997 -0.095537007 2.5 0
-1.6928656 -2.4611654 -0.10086721 3.25 0
-1.666272 -3.011245 -0.00472413 3 0
-1.6932375 -3.2503257 0.0012235194 3 0
-1.6390444 -0.85555166 -0.15331343 2 0
-1.6233338 -2.0390165 -0.10574782 3 0
-1.5890585 -2.9991455 -0.017509639 2.5 0
-1.5266216 -0.86408782 -0.1818853 4.75 0
-1.5585552 -2.1096079 -0.1194998 4 0
-1.4996369 -3.0098042 -0.032236859 1 0
-1.4575523 -0.85436344 -0.19953078 5 0
-1.3979919 -0.84837854 -0.21482354 4 0
-1.3286088 1.2201573 -0.30659923 1 0
-1.2731135 -0.64907628 -0.24949479 4 0
-1.2969084 -0.87337059 -0.1721229 1 0
-1.2879889 -2.189455 -0.17390507 6.25 0
-1.2614199 1.290774 -0.3287186 1 0
-1.2309362 -0.44771558 -0.26575232 15 0
-1.2243232 -0.51341271 -0.26554841 14.285714 0
-1.233009 -0.63181812 -0.26039338 6 0
-1.2119803 -0.68801665 -0.26488286 10.2 0
-1.2029185 -0.74633521 -0.26634985 13 0
-1.2371467 -2.173882 -0.18385297 7 0
-1.1669408 -0.63104773 -0.27784097 1 0
-1.1068891 -0.84342408 -0.2154758 1 0
-1.1308929 -2.0608232 -0.2041671 4 0
-1.1031222 -0.83335221 -0.21656263 1 0
-5.0434666 1.2764339 0.27739882 7.1999998 0
-4.9765038 1.2768967 0.2708261 9 0
-4.9003592 1.2833627 0.26280311 8.2222223 0
-4.8353219 2.3283699 0.15970887 7.8000002 0
-4.8288984 1.2919135 0.25500593 3.5999999 0
-4.8005791 0.08317776 0.27881837 1 0
-4.7649283 2.3321569 0.15159999 5.3333335 0
-4.7322869 1.294215 0.24519211 2 0
-4.7133245 0.086265057 0.27393806 1 0
-4.6793442 2.3316729 0.14215915 4.5555553 0
-4.657846 1.2911079 0.23799503 3.3 0
-4.6513181 0.090492472 0.27033567 1 0
-4.5899181 2.3744133 0.12790465 8 0
-4.6003952 2.338603 0.13263817 6.6666665 0
-4.5587673 1.3446711 0.22313331 1.5 0
-4.5973978 1.3025651 0.23086286 2.5 0
-4.5465727 0.095551848 0.26436976 1 0
-4.5293336 2.5425532 0.10415813 3 0
-4.527205 2.4866478 0.10954127 3 0
-4.5322752 2.4020424 0.11860785 2.4000001 0
-4.5199652 2.33272 0.12414135 3.6666667 0
-4.4840956 1.690047 0.18309832 4.1999998 0
-4.483263 1.6024526 0.19134191 4.2222223 0
-4.4744544 1.5202116 0.19816226 3.5 0
-4.4798369 1.452058 0.20509781 3.4285715 0
-4.4828634 1.360888 0.21383464 1.7142857 0
-4.4754519 0.13999206 0.25756657 10.4 0
-4.4806199 0.11520201 0.25951529 8.625 0
-4.4474406 -0.91012293 0.2961247 1 0
-4.4609776 -1.1398318 0.31972706 3.3333333 0
-4.4653168 -1.1680925 0.29915309 6.5999999 0
-4.4459782 -1.8295798 0.37358126 2 0
-4.4324675 -1.9074453 0.37321377 4.25 0
-4.4206619 -1.9822077 0.37291002 5.8000002 0
-4.4232554 -2.0697784 0.37428629 3.3333333 0
-4.4191866 -2.1300342 0.37455207 1 0
-4.4423523 -2.2338085 0.37831217 1 0
-4.4127722 -2.2998316 0.37570739 1 0
-4.4070187 -2.3809388 0.37589264 1 0
-4.415122 -2.4770501 0.37774888 1.2 0
-4.3968797 -2.5315847 0.37617388 2 0
-4.455421 1.4462185 0.20308194 3.5 0
-4.3533325 -1.0542761 0.34957805 1 0
-4.3895078 -2.5634897 0.37561366 2 0
-4.3775754 -2.6968269 0.37537786 3 0
-4.3789611 -2.783067 0.37623823 2 0
-4.3220024 -1.2922274 0.28861719 7 0
-4.2033143 -1.2134119 0.27991474 8.5 0
-4.233212 -1.2413192 0.28206629 6.5 0
-4.1567788 -2.7812707 0.34987769 9 0
-4.1308804 -2.7794425 0.34674659 8.5 0
-4.113709 1.9004149 0.12106629 3 0
-3.6336765 2.2330992 0.027950495 1.75 0
-3.6414671 2.2074914 0.031670749 2.5714285 0
-3.5694554 2.2605677 0.016760379 2.2142856 0
-3.4971199 2.30533 0.0025511235 2.1666667 0
-3.4901316 2.283694 0.0039510727 3 0
-3.3858047 2.3170903 -0.013445914 5 0
-3.3959863 2.267139 -0.0067181885 4 0
-3.3898215 2.0782166 0.012745529 3.5 0
-3.3842046 2.0468841 0.015366644 5.75 0
-3.3386841 2.3073375 -0.018719465 5.875 0
-3.3109419 2.2929888 -0.020918012 6 0
-3.2503998 -1.8695914 0.16831684 1 0
-3.2190249 -2.6500576 0.2293027 2 0
-3.2432947 -2.6959693 0.23272069 1 0
-3.259994 2.3026221 -0.028870851 5.5 0
-3.2499621 2.2786934 -0.027662754 5.1999998 0
-3.1959159 2.286078 -0.035866991 1.3333334 0
-3.0222502 -4.6988354 0.36876604 48 0
-2.9863424 -4.7200861 0.36448073 22.5 0
-2.8556783 -4.7237291 0.34609744 9 0
-2.8199136 -4.7146845 0.34067905 11 0
-2.7363455 -4.7191982 0.32895705 11 0
-2.7601585 -4.7243557 0.33254063 13 0
-2.4778419 -4.8916168 0.29845428 12 0
-2.4535275 2.5017893 -0.16741788 1 0
-2.4579494 2.4560606 -0.16184336 5 0
-2.3601189 2.8726983 -0.22146043 10 0
-2.3353662 1.6848854 -0.099195153 7.25 0
-2.327034 1.6573262 -0.097651005 15.333333 0
-2.2881258 1.6135014 -0.09939748 21.875 0
-2.2992268 1.5849046 -0.12067613 23.799999 0
-2.2097137 -0.77927405 0.02652505 8.3999996 0
-2.2072752 -0.80756497 0.025936574 12 0
-2.2095234 -0.89631552 0.0054604411 2 0
-2.213268 1.6123259 -0.11152789 14 0
-2.1493945 0.38136044 -0.076089174 1 0
-2.182044 -0.76649791 0.014670461 4.9230771 0
-2.1859388 -0.84680992 -0.0074291825 9.6190472 0
-2.1947477 -0.90455228 -0.00089213252 5.1428571 0
-2.1050591 1.7842984 -0.14713156 24 0
-2.1414876 1.7164514 -0.13411689 12 0
-2.106225 0.57170284 -0.086401403 5.6315789 0
-2.1089282 0.51566494 -0.083457708 6.7954545 0
-2.1119447 0.4396233 -0.066701472 5.8888888 0
-2.1258583 0.37618053 -0.08147797 1 0
-2.0752537 -0.85953379 -0.04549484 2 0
-2.0426822 2.7449186 -0.25756958 1 0
-2.0380318 2.6718054 -0.25060946 2.5 0
-2.0457549 2.5840337 -0.24013928 1.3333334 0
-2.0469553 2.5337911 -0.23466676 1 0
-2.0790415 1.8132249 -0.15441591 7 0
-2.0643194 0.51002371 -0.11295387 1 0
-1.9932123 0.044655725 -0.085112751 1 0
-2.0366578 -0.88344586 -0.055313915 3 0
-2.0053663 -0.90073287 -0.063230544 3 0
-2.0324497 2.7601893 -0.26081014 1 0
-2.0335979 2.6891398 -0.25314268 2 0
-1.9989574 1.0463327 -0.14670879 1 0
-1.9214422 0.08536543 -0.10737067 1 0
-1.920967 0.036751375 -0.103944 4.3333335 0
-1.9092481 -0.037817135 -0.10207927 12.5 0
-1.9058027 -0.11901331 -0.098350406 19 0
-1.903821 -0.17720452 -0.09592545 26 0
-1.9207642 1.1413295 -0.17410603 1 0
-1.8452642 0.90423959 -0.16171128 1 0
-1.8946087 0.099803507 -0.11566049 1 0
-1.8787645 0.020951658 -0.099969625 5.1666665 0
-1.8769782 -0.043684453 -0.088505328 18.4 0
-1.871991 -0.12358071 -0.083524585 23.6 0
-1.8721322 -0.20410813 -0.082835734 27.719999 0
-1.8659748 -0.26046881 -0.077638328 23.333334 0
-1.8113264 -0.87974304 -0.058406532 11 0
-1.8336823 -0.89589804 -0.053472549 9.833333 0
-1.7929109 -1.6999209 0.004539907 4 0
-1.7823625 0.99563551 -0.18536079 1 0
-1.8136022 0.91191018 -0.16925928 1 0
-1.7666022 -0.87494004 -0.06817472 9.6000004 0
-1.7705296 -0.88889194 -0.067204535 10 0
-1.758626 -1.714239 -0.0012553036 2.3333333 0
-1.7168642 -2.021884 -0.004778564 5 0
-1.7378492 2.4786587 -0.27941287 2.5 0
-1.7552166 2.4675617 -0.2753917 4 0
-1.7010934 1.575251 -0.19501841 1.5 0
-1.7497785 0.96607912 -0.18885213 1 0
-1.7397894 0.95396769 -0.18960035 1 0
-1.6856902 -0.87540019 -0.085861355 9.75 0
-1.6949338 -0.88166261 -0.083767951 10 0
-1.6610214 -1.997509 -0.014658034 5 0
-1.6727254 -2.0118227 -0.012479246 6.75 0
-1.6803018 -2.1113689 -0.010064125 2 0
-1.6555374 -2.1968579 -0.01338765 3 0
-1.6898921 -2.2770517 -0.0067460388 1.5 0
-1.6772987 -2.3776739 -0.0079208314 1 0
-1.6824355 -2.424521 -0.0066302717 1 0
-1.654672 -2.5326295 -0.010334864 1 0
-1.6562346 -2.5905244 -0.0095781982 1 0
-1.6283158 -2.691144 -0.013398826 1 0
-1.6610242 2.5744514 -0.30201083 1 0
-1.6736531 2.4990206 -0.2921834 1.1111112 0
-1.6564466 2.4624977 -0.2913174 1 0
-1.6761632 1.5527524 -0.19721794 3 0
-1.6642274 1.5004374 -0.1942907 4.4285712 0
-1.6230133 -0.867535 -0.099731892 9 0
-1.5786904 -2.039711 -0.028385818 1 0
-1.5996213 2.4922993 -0.30387872 1.6 0
-1.6076229 2.4669983 -0.29995787 1.5 0
-1.6017535 1.5152224 -0.20675957 1 0
-1.5243419 -0.86362028 -0.1216009 7.6666665 0
-1.5226821 2.5001268 -0.31762522 1 0
-1.4492667 -0.86197376 -0.13831267 10 0
-1.3797184 -0.85509628 -0.15394196 9.333333 0
-1.3302209 2.3739884 -0.33781666 1 0
-1.2423372 -2.2145486 -0.084807485 1 0
-1.240353 -2.238905 -0.08480829 1 0
-1.3139054 2.3625638 -0.33949822 1 0
-1.1912382 -2.2082396 -0.093911797 1 0
-1.1093246 -2.2068043 -0.10843691 1 0
-4.9812808 0.056957513 0.43065694 1 0
-4.9837646 -0.23371974 0.44690359 5.3333335 0
-4.9893842 -0.3153381 0.45194486 1.1428572 0
-4.9918222 -0.38882932 0.4561086 1 0
-4.981637 -0.46749067 0.45892906 1 0
-4.9786272 -0.55525696 0.46304989 1 0
-4.9998636 -0.6248188 0.46920866 1 0
-4.9948587 -0.70939988 0.47281393 1 0
-5.0120301 -0.75667101 0.47729555 1 0
-4.944335 1.2278153 0.35486466 27.25 0
-4.9392066 0.061045736 0.42521811 3.5 0
-4.962718 -0.17697388 0.44124782 6.1999998 0
-4.9662151 -0.22820906 0.4444373 14.083333 0
-4.9680085 -0.30328718 0.44865906 1.75 0
-4.9592991 -0.38935214 0.4521057 1.2 0
-4.9551768 -0.46695149 0.45561808 1 0
-4.9573579 -0.54443848 0.45985651 1 0
-4.9390745 -0.62876672 0.46184489 1.1 0
-4.9514127 -0.71229547 0.46754709 1 0
-4.8977399 1.2157742 0.34973437 26.4 0
-4.8573914 0.75377375 0.37400717 2.5 0
-4.8414083 0.65178519 0.37830397 7.6666665 0
-4.8463249 0.57987082 0.38331169 7.9166665 0
-4.8480511 0.40384835 0.39410514 9.166667 0
-4.8468709 0.327198 0.39848304 9.375 0
-4.8309155 0.2650288 0.40013674 10 0
-4.8365326 0.062959984 0.4123978 8.5 0
-4.80937 1.2030874 0.33934033 28.428572 0
-4.777791 0.79977232 0.36114705 5 0
-4.7933154 0.75415784 0.36594892 4.125 0
-4.818882 0.6327033 0.37665856 7.5999999 0
-4.8258848 0.55887753 0.38203722 8 0
-4.7915015 0.47890019 0.3825832 10.466666 0
-4.824676 0.42675817 0.38983667 9 0
-4.8126531 0.24652702 0.39894533 9.8888893 0
-4.7732944 0.06929031 0.40421069 11.333333 0
-4.7417688 1.2031633 0.33074069 24.571428 0
-4.7410383 0.94456363 0.34735948 9 0
-4.695981 0.89043295 0.34512216 6 0
-4.7212839 0.81128633 0.35332185 5 0
-4.7526383 0.75324953 0.36090302 5 0
-4.7398386 0.63794422 0.36645299 3 0
-4.7218494 0.083280891 0.39704943 14.8 0
-4.6531935 1.2559946 0.31598002 32.5 0
-4.6312971 1.2426196 0.31406593 31 0
-4.6394825 1.1577344 0.32069352 15.5 0
-4.6766882 1.0256613 0.33401385 8 0
-4.6356068 0.95632172 0.33328122 6.6363635 0
-4.6427488 0.88168603 0.33896339 5 0
-4.6552911 0.82616675 0.3440778 4.5 0
-4.6336088 0.095851958 0.38540745 13.2 0
-4.5488491 1.2630991 0.30216134 25.75 0
-4.5944562 1.249261 0.30891863 29.333334 0
-4.5989103 0.96222436 0.32825673 7 0
-4.5207305 0.59390885 0.34174269 1 0
-4.5398936 0.10395624 0.37333667 15 0
-4.4881916 1.3087255 0.29133222 40.8125 0
-4.5002413 1.0622889 0.30921376 8 0
-4.4563437 0.14445417 0.36066118 87.5 0
-4.4584074 0.11838536 0.35715193 58.700001 0
-4.4495831 -0.96734655 0.41684848 5.375 0
-4.4386063 -1.0053742 0.41719717 8.333333 0
-4.4159236 1.6609225 0.25808981 32 0
-4.4204111 1.6157371 0.26177004 34.799999 0
-4.4191518 1.5304544 0.26743233 35.777779 0
-4.4224553 1.4604458 0.27262288 36.333332 0
-4.4243994 1.3749828 0.27865928 40.615383 0
-4.4320664 1.3308736 0.28262353 46 0
-4.4106588 1.0315751 0.2998105 10 0
-4.3953462 0.99908841 0.29999357 8.3999996 0
-4.4100966 0.53859395 0.33131203 1 0
-4.3822522 0.50900888 0.32965592 3 0
-4.3962097 -1.0039029 0.41176632 9 0
-4.3638587 -1.4462897 0.42701972 12.666667 0
-4.3610287 -1.5008354 0.42896771 15.2 0
-4.3051939 1.5397115 0.25197381 9 0
-4.2862949 -0.94253182 0.3950707 11 0
-4.2502289 -1.2098819 0.40228373 25 0
-4.24862 -1.2385124 0.40331197 23 0
-4.2881308 -1.3446928 0.41294041 9 0
-4.2452106 1.5125895 0.24600968 7.8333335 0
-4.2546258 1.4906203 0.24874997 7.5 0
-4.2022958 -0.93564641 0.3841086 28.166666 0
-4.2368469 -1.1980163 0.40005505 18 0
-4.2359772 -1.2632618 0.40275037 29.5 0
-4.1697998 1.5259027 0.23522024 7 0
-4.1867352 1.492153 0.23977384 6.6666665 0
-4.1581397 -0.9633252 0.37973288 42.333332 0
-4.1492691 -1.0258801 0.38135862 36.111111 0
-4.1430092 -1.082078 0.38301232 34 0
-4.1023507 -1.3610648 0.38962647 2 0
-4.1336565 -1.4181763 0.39606714 1 0
-4.1514988 -1.4605433 0.40014482 1 0
-4.0598044 1.6690272 0.21076684 7 0
-4.0807266 1.610997 0.21758631 6.9285712 0
-4.0989933 1.5603148 0.22352867 6.5 0
-4.0125628 -1.202002 0.37133974 6.6666665 0
-4.0745106 -1.2410065 0.38099301 1 0
-4.0722098 -1.3134271 0.38373017 4 0
-4.0077925 1.6782843 0.20322061 7.0999999 0
-4.0181413 1.6492347 0.20663527 7 0
-3.9992163 -1.2066706 0.36980724 6 0
-3.9295743 1.7613566 0.18694988 9 0
-3.9565744 1.7010176 0.19481224 8.5555553 0
-3.8650072 1.7631234 0.17818521 8.363636 0
-3.8067312 0.18377098 0.24735248 5 0
-3.7954435 0.067414314 0.25426784 7 0
-3.8042395 0.020091809 0.25802803 21.15625 0
-3.8076355 -0.065314144 0.26336166 6.9473686 0
-3.8070068 -0.12961783 0.26677006 7 0
-3.7974198 -0.22317211 0.27052006 7 0
-3.7889943 -0.26743796 0.27176058 7 0
-3.7850089 -1.8373306 0.36686116 2 0
-3.7976205 -1.9822176 0.37417418 7.875 0
-3.7822242 1.7567481 0.16751605 8 0
-3.7333324 0.25613141 0.23520188 7 0
-3.7609036 0.18097252 0.24335137 7.0769229 0
-3.7821903 0.10629742 0.25049847 7.090909 0
-3.7625034 0.016937159 0.25449723 8 0
-3.7687201 -0.055940617 0.25939417 8.7368422 0
-3.7396712 -0.13831277 0.26127797 19.264706 0
-3.7246349 -0.22295047 0.26401669 9 0
-3.7803402 -0.30117387 0.27238995 7 0
-3.7501726 -0.36036277 0.27196482 7.2352943 0
-3.7108808 -0.46193591 0.27173871 10.5 0
-3.718209 -1.996917 0.36403918 7.2857141 0
-3.7009101 1.8548733 0.14952609 7.181818 0
-3.7191262 1.7901809 0.1566177 7.25 0
-3.6439695 0.40953138 0.21402207 7 0
-3.6932898 0.33102077 0.22545989 7.0333333 0
-3.7074125 0.28282285 0.23068459 7.3333335 0
-3.7081013 0.21433872 0.23605216 8 0
-3.7071722 -0.13499561 0.25824547 35 0
-3.7013538 -0.19577789 0.26070994 10 0
-3.700227 -0.31979918 0.26588523 9 0
-3.670357 -0.37916306 0.2652775 35.40625 0
-3.681 -0.45294955 0.26864031 10 0
-3.6769238 -0.53245461 0.27046421 7 0
-3.635922 -0.59119815 0.26788941 7 0
-3.6322889 -1.9736478 0.35151288 7.3333335 0
-3.6327524 -2.0254424 0.35355461 7.3333335 0
-3.6147039 1.9463296 0.13123867 9.666667 0
-3.6278245 1.8590153 0.13930017 7.6923075 0
-3.5775242 0.48599052 0.20042931 7 0
-3.5936484 0.44277781 0.20600951 7.2857141 0
-3.6206415 0.35233483 0.2166166 8 0
-3.6207852 -0.4881919 0.26389635 9 0
-3.5934083 -0.62830609 0.26438022 7.2142859 0
-3.5612779 -0.67489105 0.26192397 7.875 0
-3.5611908 -2.0429087 0.34447938 7.1666665 0
-3.5325518 -2.1415713 0.34430999 8.25 0
-3.5692317 1.9340723 0.12591134 9 0
-3.5401206 1.8619553 0.12711592 7.7777777 0
-3.5534024 0.43647534 0.20247413 8 0
-3.5401781 -0.63991392 0.25913221 8 0
-3.5310683 -0.69681197 0.25910684 7 0
-3.5010414 -2.1514633 0.34036702 8 0
-3.4692426 -2.2101598 0.33821559 7.8333335 0
-3.4428148 1.9154446 0.10990025 9 0
-3.473525 1.8738345 0.11712867 7.6666665 0
-3.4298041 0.60523534 0.17295027 7 0
-3.389344 -0.80410939 0.2446897 7 0
-3.3975258 -2.1663089 0.32668361 8 0
-3.3899362 -2.1853538 0.32635015 8 0
-3.3712914 1.9285491 0.099073604 8.5 0
-3.3941412 1.8904912 0.10498664 7.6363635 0
-3.3947549 0.62592918 0.16685162 7 0
-3.4003625 0.62278146 0.16781838 7 0
-3.3821313 -0.8081159 0.243889 7 0
-3.3328528 -0.83300066 0.23828155 7 0
-3.3215532 -2.2142134 0.31796867 8.125 0
-3.3473785 1.9892242 0.091371 18 0
-3.3113289 1.9350414 0.090289615 10.727273 0
-3.2852354 1.8996454 0.089228503 8 0
-3.2966394 0.66997051 0.15064865 7 0
-3.2778025 0.62160218 0.15339363 8 0
-3.2527573 -0.85220343 0.22863489 7.1111112 0
-3.2266643 -0.90480459 0.22560948 6 0
-3.2082307 -1.9149916 0.29100618 9.5 0
-3.2244563 -1.9330388 0.2939418 10 0
-3.2472496 -2.0327234 0.3008469 9 0
-3.2102821 -2.1621239 0.30053797 7 0
-3.2066431 -2.2348526 0.30274957 8 0
-3.2150066 1.9312983 0.077139974 8.1111107 0
-3.25212 1.8907259 0.085263386 7.5714288 0
-3.2278805 0.69338185 0.13962911 7 0
-3.190299 -0.88322043 0.22087184 7 0
-3.1505182 -0.8926242 0.2157497 7 0
-3.1974273 -1.9464841 0.29067841 9 0
-3.1602187 -2.2111044 0.29536718 8.2857141 0
-3.1300786 2.0869629 0.053933993 13 0
-3.1356766 2.0191474 0.059645489 10.25 0
-3.1691229 1.9231515 0.071309321 7.8571429 0
-3.1568098 1.8952547 0.071609199 8 0
-3.0773139 -0.86358106 0.20590882 8 0
-3.1058853 -0.89999795 0.2098373 7 0
-3.0829325 -2.2134202 0.28460515 7.4285712 0
-3.0404925 -2.2619963 0.28044081 7 0
-3.1084969 2.0101118 0.056480259 10 0
-3.0703349 1.9275849 0.057097524 7.25 0
-3.0365355 1.8984264 0.054445609 7 0
-3.0234551 0.79845744 0.10100023 4 0
-3.0314243 0.72652173 0.10989366 7 0
-3.0485504 0.68000692 0.11730964 8 0
-2.9669127 -2.23877 0.26917273 7.5 0
-3.0235393 -2.2583921 0.2779136 7 0
-2.9929042 1.9182177 0.046828762 7 0
-2.9957025 1.8984314 0.048665494 6.875 0
-2.9766343 0.72603506 0.10217527 7 0
-2.9526906 -0.87526476 0.18848735 8 0
-2.9134643 -0.90238482 0.18283753 7 0
-2.897265 -2.2031319 0.25795549 6 0
-2.9443898 -2.2804742 0.26753557 7 0
-2.9150445 1.9473679 0.03365013 7 0
-2.8868785 0.71589828 0.090123318 7 0
-2.8945379 -0.90027797 0.18004274 7 0
-2.8425074 -2.1540453 0.24831858 7 0
-2.8371117 -2.1803131 0.24852793 7.3333335 0
-2.834059 1.967099 0.020655051 7.4666667 0
-2.8507912 0.71012104 0.085332766 7 0
-2.8426952 0.70848852 0.084276527 7 0
-2.7656369 -2.1456249 0.23700309 7 0
-2.7634525 -2.1728888 0.23770528 8 0
-2.7557635 1.944171 0.011086941 7.9333334 0
-2.6962063 -0.85136926 0.14917508 7 0
-2.6609046 -2.145452 0.22192886 7.3333335 0
-2.6880138 -2.1745584 0.22692819 7.5999999 0
-2.6752007 1.9377806 -6.4209104e-05 7.4285712 0
-2.6656883 1.9059843 0.00086665154 7 0
-2.6526959 0.64607382 0.060707331 7 0
-2.5919034 -2.1486559 0.21206966 7.1999998 0
-2.6040945 -2.2078223 0.21606244 6.5 0
-2.59339 1.9416625 -0.012194484 9.8461542 0
-2.5676103 0.59601307 0.051521152 7 0
-2.5481215 0.53496528 0.054235548 8 0
-2.5482788 -0.77342534 0.12395194 7 0
-2.5270798 -2.1462092 0.20256886 7 0
-2.5207419 -2.1733336 0.20266841 7 0
-2.5215566 1.929311 -0.021754041 42.076923 0
-2.4981611 1.9092673 -0.023721308 62.333332 0
-2.5218444 0.56497431 0.046724707 7 0
-2.5050087 0.55161577 0.045100376 7 0
-2.4497628 -0.69621754 0.10576335 7 0
-2.4912083 -0.73217762 0.11360646 7 0
-2.454443 -2.1247005 0.19116679 7.5 0
-2.4381969 1.878868 -0.030304894 41.411766 0
-2.3945384 0.56963784 0.023858637 22.25 0
-2.4004059 0.53419781 0.028220162 24.052631 0
-2.3982072 -0.71898258 0.096964382 5 0
-2.3741362 -2.1095943 0.17883679 6.8571429 0
-2.3664849 1.8465232 -0.038513839 19.333334 0
-2.3364682 1.8147377 -0.040656537 15 0
-2.3571615 1.6934775 -0.028911576 41.666668 0
-2.3503067 1.6203796 -0.02469416 77.699997 0
-2.3261631 1.5802875 -0.025406599 95.833336 0
-2.3264647 0.65114802 0.039882377 5 0
-2.3540046 0.59381419 0.046099395 18 0
-2.3464258 0.51436609 0.041601896 22.535715 0
-2.3308632 0.44369298 0.032588005 38.98148 0
-2.3103304 0.37035531 0.026395574 57.541668 0
-2.2896714 -0.50297129 0.072208449 41.142857 0
-2.2956042 -1.7030169 0.15163344 5.1666665 0
-2.2828364 -1.8178786 0.15418613 4 0
-2.2845507 -1.8789761 0.15679854 6 0
-2.2773099 -1.9813406 0.15967029 8.5 0
-2.2907372 -2.044384 0.16407412 8.5 0
-2.3128362 -2.0955808 0.16929254 6.5 0
-2.2792554 1.5562401 -0.030664936 99.75 0
-2.2294772 1.1773673 -0.011331797 10 0
-2.2910314 0.48188442 0.045777068 6 0
-2.2500601 0.43408394 0.042523727 12.30303 0
-2.2536316 0.36022556 0.023156792 37.400002 0
-2.2343445 0.17612603 0.027321756 7 0
-2.2113504 -0.28210172 0.049359977 7 0
-2.2280788 -0.34436655 0.055137098 7 0
-2.2694821 -0.45340249 0.066898316 7 0
-2.2486212 -0.62278807 0.067715377 6 0
-2.2206073 -0.68493032 0.075049631 20.461538 0
-2.2062323 -0.75984013 0.081485838 42.31818 0
-2.1995351 -0.82528448 0.074123934 18 0
-2.2071381 -0.90460306 0.065934971 9.333333 0
-2.233453 -1.6752573 0.14129841 1 0
-2.2215991 -1.6998546 0.14048707 1 0
-2.166713 1.6008828 -0.050626606 53 0
-2.2126756 1.5671942 -0.041368723 77.625 0
-2.1539698 1.2041509 -0.024621695 1 0
-2.203558 1.167329 -0.014545918 6.0833335 0
-2.1930749 0.40871006 0.035251066 11.333333 0
-2.1712205 0.3607395 0.0044129789 17.5 0
-2.1550601 0.18628895 0.011305735 3.75 0
-2.199975 -0.23724063 0.045178086 7 0
-2.2037926 -0.24736938 0.046381056 7 0
-2.1642077 -0.69645792 0.086873844 9.6999998 0
-2.1820726 -0.86031902 0.080580622 40.625 0
-2.1809661 -0.90721262 0.092170499 46 0
-2.140764 -1.6638966 0.12697904 1.5714285 0
-2.148623 -1.6902395 0.12919649 1.5 0
-2.1112313 1.6794471 -0.064492971 10 0
-2.1451859 1.621087 -0.055278555 24 0
-2.1017046 0.41602325 0.020439714 48.42857 0
-2.0869594 0.36362064 0.018856436 31.142857 0
-2.0866971 -0.67240393 0.048579276 2.5 0
-2.0609405 -1.6459299 0.11426392 3.8571429 0
-2.0938985 -1.6830165 0.12070026 1 0
-2.0385652 1.7622633 -0.081237316 8 0
-2.0351458 1.737263 -0.079985917 8.5384617 0
-2.0040193 1.6682334 -0.079793632 9 0
-2.0347831 1.5135119 -0.064286768 1 0
-2.0298638 0.34754369 0.013439715 1 0
-1.9745877 -0.77854198 0.033406496 10.142858 0
-1.983323 -1.6457982 0.10253874 6.4285712 0
-1.9828771 1.7039821 -0.0854927 8.25 0
-1.9707662 1.6591328 -0.084162772 7.8000002 0
-1.9445328 1.4730319 -0.075111091 34.111111 0
-1.9424897 1.374966 -0.068605602 10.333333 0
-1.9387382 1.3433625 -0.066987574 12.166667 0
-1.900102 0.17328793 0.0034617931 22.333334 0
-1.9218227 0.061713353 -0.025617689 5.4000001 0
-1.9604521 -0.36819741 0.042815045 1 0
-1.9313648 -0.78124595 0.0444493 12.9 0
-1.8999665 -1.6393242 0.089643165 7.625 0
-1.8431394 1.5535463 -0.096103102 8 0
-1.8968954 1.476356 -0.082574189 17 0
-1.8873445 1.3805033 -0.077386469 2 0
-1.8870775 0.16401294 0.0019396991 47 0
-1.8780314 0.15986034 0.00074627995 60 0
-1.8724377 0.026531085 -0.033081025 41.888889 0
-1.86449 -0.038207494 -0.01034601 67.692307 0
-1.8588457 -0.11864175 -0.0069163442 71.75 0
-1.8518108 -0.20048743 -0.003834337 73.384613 0
-1.8506988 -0.25838238 -0.001121223 57.333332 0
-1.8549881 -0.79634422 0.04668963 12 0
-1.8334186 -1.6471884 0.079848126 6.5 0
-1.8253729 1.5785735 -0.10054076 8 0
-1.782913 1.4947898 -0.10120425 8.333333 0
-1.8045694 0.0093903989 -0.0022639781 1 0
-1.754986 -0.84992802 0.033467472 34 0
-1.7288443 -1.7172154 0.066782534 32.333332 0
-1.7398249 1.5305282 -0.11024445 15.333333 0
-1.7128924 1.4836942 -0.11113876 8.2666664 0
-1.6787997 -0.86390531 0.022157192 70.5 0
-1.6729703 -1.5494274 0.051269144 9 0
-1.6602556 -1.7003087 0.055609152 8.333333 0
-1.6491406 1.4680548 -0.11982995 8 0
-1.6200548 -0.32428819 -0.013571069 1 0
-1.5933592 -0.85184371 0.0081730038 45.42857 0
-1.5781702 -1.6385815 0.040450111 7.6666665 0
-1.6041996 -1.6853073 0.046402782 7 0
-1.5810673 1.5084131 -0.13303056 6.5 0
-1.4901035 -0.85316116 -0.0080144554 67 0
-1.4335438 -0.85125923 -0.017016351 70 0
-1.3674015 -0.84735334 -0.027631924 63.333332 0
-1.2663125 -0.86244971 -0.042864561 7.3333335 0
-1.2004794 -0.43557999 -0.074560523 12.714286 0
-1.1994588 -0.5096454 -0.070913792 9.125 0
-1.2010598 -0.6251021 -0.064817548 7 0
-1.2032325 -0.66486961 -0.062490582 8.5714283 0
-1.2052066 -0.74807149 -0.058071613 12.111111 0
-1.2189149 -0.82859617 -0.051982477 7.5714288 0
-1.1527594 -0.6290378 -0.072285384 1 0
-5.1612387 1.0889987 0.47869703 1 0
-5.1550117 0.5790208 0.50231671 1 0
-5.092958 1.2822965 0.45907789 1.5 0
-5.0715199 1.2454274 0.45739916 1 0
-5.0815363 1.0227038 0.46925867 1 0
-5.1098223 0.71615237 0.48838255 1 0
-5.0780535 0.48618305 0.49476105 1 0
-5.0629005 0.43226421 0.49508569 1 0
-5.0330458 1.2820362 0.44971588 33 0
-5.0586734 1.0193489 0.46581852 1 0
-5.0324764 0.40291294 0.49174529 1.3333334 0
-5.0163012 0.33477893 0.49266669 1.8461539 0
-4.9919219 0.27774835 0.49173731 3.6666667 0
-4.9845662 0.06620881 0.50174582 39.400002 0
-4.9765596 0.013735563 0.50330484 14.090909 0
-4.9736423 -0.062502027 0.50699902 32.299999 0
-4.9756317 -0.12935728 0.51100576 41 0
-4.9705362 -0.2251371 0.51554585 100 0
-4.9720163 -0.29703042 0.51985663 53.57143 0
-4.9646626 -0.36866826 0.5227862 30.5 0
-4.9661269 -0.64276606 0.53911877 2.5 0
-4.962544 -0.73237211 0.54394293 2 0
-4.9684429 -0.77123356 0.54723763 1 0
-4.9566422 1.2888713 0.43746436 52.857143 0
-4.9322796 0.082296491 0.49254963 11.333333 0
-4.9655948 0.011041537 0.50170267 14 0
-4.9669862 -0.070319191 0.50636649 32.599998 0
-4.9531007 -0.17922704 0.51018953 62 0
-4.9556117 -0.22641025 0.51324147 98.5 0
-4.9602222 -0.3127051 0.51886976 43.375 0
-4.9528627 -0.38840809 0.52204716 21.785715 0
-4.9404821 -0.46597597 0.52458388 9.3999996 0
-4.9315891 -0.544788 0.52780306 5.7333331 0
-4.9365587 -0.62408173 0.5333063 2.8333333 0
-4.9372349 -0.69916987 0.53792357 2.1666667 0
-4.9311504 -0.79887033 0.54301643 1.9090909 0
-4.8839097 2.3263829 0.38182443 66.375 0
-4.8774395 1.2929509 0.42491838 53 0
-4.8426895 0.086663917 0.4780395 11 0
-4.8054304 2.3278186 0.36980286 68.125 0
-4.8077602 1.2985913 0.4138059 38.5 0
-4.7712531 0.47908503 0.44642854 1 0
-4.7729893 0.089577183 0.46677774 12 0
-4.733407 2.3345876 0.35856962 61.125 0
-4.7161207 1.3031576 0.39934197 52.222221 0
-4.7018881 0.096110329 0.4551011 12.5 0
-4.694025 -0.83382922 0.50766313 1 0
-4.5871234 -4.1145105 0.71660113 10 0
-4.6369758 2.980742 0.31815886 1 0
-4.6570163 2.3397555 0.34676254 56.333332 0
-4.6334124 1.3043333 0.38644278 55 0
-4.6056757 0.10095201 0.43951577 14.666667 0
-4.6068583 -0.78205055 0.49067816 1 0
-4.5211458 -4.1303596 0.70795685 12 0
-4.5897522 3.0058954 0.31009182 1 0
-4.5809703 2.3487573 0.33487988 61.111111 0
-4.5275745 1.350855 0.36803129 61.5 0
-4.5590992 1.3165954 0.3743884 58.81818 0
-4.5317965 0.1063419 0.42746168 17 0
-4.5044613 -0.77185577 0.47387257 1 0
-4.4566598 -4.1163225 0.69741303 52.75 0
-4.5078764 2.7187769 0.30912983 11 0
-4.5214171 2.6426017 0.31417441 6 0
-4.5130129 2.58061 0.31536841 34.200001 0
-4.5033469 2.4930751 0.31739068 36.25 0
-4.5015507 2.4215033 0.31997076 38 0
-4.5080714 2.3383677 0.32427713 50.400002 0
-4.4645276 1.7415024 0.34190062 46.5 0
-4.4649024 1.6893497 0.34411621 56.222221 0
-4.4620056 1.6070111 0.34709591 56.875 0
-4.454793 1.5361778 0.34895152 58 0
-4.4491053 1.4589168 0.35132796 62.799999 0
-4.4646921 1.3730826 0.35737091 56.3125 0
-4.4537201 0.15079133 0.44162995 69.818184 0
-4.459589 0.12421238 0.44007316 57.941177 0
-4.4269285 -0.78642815 0.4625527 4.6666665 0
-4.4289708 -0.85927701 0.46746978 3.6666667 0
-4.4336791 -0.93982553 0.47334126 2.5 0
-4.4240417 -1.0200609 0.47699246 2.3529413 0
-4.427134 -1.0876005 0.48185694 11.5 0
-4.4585314 -1.1833544 0.49301785 53.75 0
-4.4356833 -1.2245575 0.49216619 50.25 0
-4.4236917 -1.7656852 0.52672637 9 0
-4.4195013 -1.8150616 0.52946866 45.400002 0
-4.4109378 -1.8994578 0.53396165 42.799999 0
-4.3972793 -1.9722165 0.53689957 52 0
-4.3968654 -2.0565262 0.54267561 34 0
-4.3907132 -2.1369903 0.54733086 26.5 0
-4.3814478 -2.217726 0.55155152 25 0
-4.3772411 -2.2733614 0.55479968 28 0
-4.3760328 -2.3758411 0.56179154 25.333334 0
-4.3624606 -3.0419106 0.60677904 1 0
-4.3637662 -4.0876284 0.68163663 47 0
-4.3996329 -4.1232624 0.68948412 55 0
-4.3577027 -4.2077045 0.68935555 28 0
-4.3894053 3.1024046 0.2764284 1 0
-4.4397435 2.2516026 0.31743279 102 0
-4.3753853 -1.0550001 0.47164562 1 0
-4.3767376 -1.0634437 0.47240713 1 0
-4.3349886 -1.2162288 0.4759548 47 0
-4.3702869 -1.2214164 0.4817836 49.5 0
-4.3728075 -2.3045044 0.55630755 25.5 0
-4.3628697 -2.4087701 0.56211483 21 0
-4.3651509 -2.4690068 0.56669021 20.333334 0
-4.3525505 -2.5352304 0.56945288 19.666666 0
-4.3472042 -2.6487665 0.57665491 20 0
-4.3416839 -2.6877997 0.57858396 22 0
-4.3386536 -2.7663383 0.58368415 24.333334 0
-4.3258762 -2.8485079 0.58759248 38 0
-4.3331141 -2.939322 0.59511507 81 0
-4.3420663 3.1227934 0.26860693 1 0
-4.2633677 -0.13414744 0.44359308 16.4 0
-4.2746568 -1.2120887 0.46631655 47.333332 0
-4.2492862 3.0530784 0.25754082 1 0
-4.1887894 -0.5677318 0.45790675 19.799999 0
-4.1903658 -1.2073096 0.45293987 57.166668 0
-4.1400104 -3.8076615 0.62858558 26.333334 0
-4.2058525 2.9627995 0.25458995 1 0
-4.1134043 -1.2033674 0.44078207 58.666668 0
-4.1188421 -2.1657202 0.50828236 2 0
-4.0929627 -2.7643256 0.54689586 28 0
-4.0587025 -2.8633311 0.54888284 1 0
-4.1049099 -2.9389069 0.561131 1 0
-4.0800714 -3.8174806 0.62048811 65 0
-4.0236526 -4.4561911 0.65827173 99 0
-4.1287217 3.0990157 0.23795012 1 0
-4.1287341 3.0586131 0.23950188 1 0
-4.1040001 3.0015261 0.23804425 1 0
-4.0994463 1.9191985 0.27941528 46.5 0
-4.0898266 1.8948277 0.27893421 36 0
-4.0321617 -1.1955396 0.42773154 57.285713 0
-4.0057287 -1.237913 0.42655107 6 0
-3.9537606 -3.5854595 0.58526599 32 0
-3.9880683 -3.6375809 0.59404624 1 0
-3.9497187 -4.3411379 0.63918769 10 0
-3.9977665 -4.4482384 0.65392339 69 0
-4.0287123 3.0313232 0.22580841 1 0
-4.0374198 3.0177295 0.22761162 2 0
-4.0318489 2.6914716 0.23929574 1 0
-3.9854002 2.542275 0.23816802 13 0
-3.995394 -1.2085818 0.42296413 33.5 0
-3.9811342 -1.2280604 0.4221046 16.5 0
-3.9289842 -3.6028352 0.58289051 32 0
-3.9552238 3.0387943 0.21472488 1.3333334 0
-3.9516611 3.0030627 0.2155633 2.2 0
-3.9558697 2.4272382 0.23822822 10.666667 0
-3.7388792 3.0070283 0.18429439 2 0
-3.6842887 2.2766418 0.20400411 6 0
-3.5997443 2.5004745 0.18317598 6 0
-3.6100044 2.2330387 0.19479156 31 0
-3.6201954 2.2055147 0.19732651 26.454546 0
-3.5249982 -2.6923058 0.45823923 1 0
-3.4972153 -2.7844174 0.46086654 1 0
-3.5592566 2.4768043 0.1781812 11.25 0
-3.5152514 2.413661 0.17416976 4 0
-3.5734596 2.2390065 0.18923184 5 0
-3.5809996 2.2199247 0.19105376 10 0
-3.5038958 -2.1131396 0.41333449 10 0
-3.4473357 2.3088605 0.16826925 28 0
-3.4625173 2.2901931 0.1711719 13.714286 0
-3.3904464 2.9391782 0.13640903 6 0
-3.386096 2.7905047 0.14135271 7 0
-3.3720489 2.2814856 0.158417 17.5 0
-3.3510139 2.1104958 0.16179612 13 0
-3.3649139 2.0522575 0.1659914 25 0
-3.3040805 3.0293725 0.12063865 34 0
-3.2953289 3.0121303 0.12002988 42 0
-3.3419199 2.6167843 0.1415063 6 0
-3.296371 2.505652 0.13912418 11 0
-3.3247788 2.3830984 0.14779419 8 0
-3.3344767 2.2944815 0.15251094 9.75 0
-3.2084956 -1.8379556 0.35056996 9 0
-3.2192004 -1.8505516 0.35302469 8 0
-3.1937432 -1.9543234 0.3568905 1 0
-3.2159586 -2.6600218 0.41129911 6 0
-3.2031374 -2.8427019 0.42272651 1 0
-3.2658701 2.5388839 0.1335054 11 0
-3.2027783 2.2883635 0.13383777 19 0
-3.1909208 -1.8422759 0.34835505 2 0
-3.1901262 -2.0149226 0.36076859 1 0
-3.1233752 3.0524426 0.093986258 36.5 0
-3.13728 2.3904538 0.12067328 1 0
-3.1578355 2.2655056 0.12827073 26.75 0
-3.0789254 3.0640311 0.087239906 18 0
-3.1068811 2.4019125 0.11591706 8 0
-3.0014746 3.0708528 0.076009035 8.1999998 0
-2.9240186 3.0703137 0.065085486 5.5555553 0
-2.8456826 3.0749643 0.053879246 4.4000001 0
-2.7627759 3.0829229 0.041943043 5.8000002 0
-2.6815572 3.0655987 0.03122595 8 0
-2.6023459 3.0695839 0.020028889 6.3333335 0
-2.5313902 3.0694127 0.01016821 18 0
-2.4408545 3.1387975 -0.0049867481 1.5 0
-2.44625 3.0986576 -0.0027329028 2.4285715 0
-2.4209321 2.5485454 0.0144694 1 0
-2.3920617 3.0926392 -0.010000467 4 0
-2.3850906 3.0225527 -0.0083263665 3 0
-2.3599281 2.8885982 -0.0067492872 37 0
-2.3529072 2.8758307 -0.0072354674 35 0
-2.3161445 1.6992304 0.032445818 33 0
-2.3095322 1.6623421 0.032972604 59.666668 0
-2.2836821 2.8951321 -0.017480761 63.099998 0
-2.2917769 1.6207253 0.032185942 82.444443 0
-2.2611761 1.5885282 0.029316634 94.599998 0
-2.1856112 -0.81879878 0.13775966 73 0
-2.2054248 2.8951647 -0.028211027 64.111115 0
-2.1972823 1.6071918 0.020023465 72.400002 0
-2.1690502 1.1683942 0.033618465 7.625 0
-2.1322908 0.078380659 0.07726118 5 0
-2.169045 -0.71504486 0.12877619 15 0
-2.1608422 -0.75860494 0.13339446 44.714287 0
-2.1601553 -0.82931852 0.15990967 77.541664 0
-2.1651411 -0.90485668 0.16305944 45.23077 0
-2.129173 2.899868 -0.038811684 59.222221 0
-2.0851912 1.7776344 -0.0016244501 53 0
-2.0670505 1.1116171 0.076091096 2 0
-2.0932379 0.84289026 0.037125066 9.333333 0
-2.0723853 0.58439016 0.065897405 56.807693 0
-2.0730302 0.52210891 0.067615643 70.930229 0
-2.0751138 0.44312871 0.072690316 70.5 0
-2.0738416 0.36488554 0.074733123 58.880001 0
-2.0828466 0.29282618 0.070442505 1.7142857 0
-2.0635567 0.17951033 0.063590229 23.200001 0
-2.1001973 0.079551697 0.073218919 4 0
-2.061775 -0.75923592 0.11801606 1 0
-2.0358002 -0.85415018 0.16415554 50 0
-2.013983 2.8892741 -0.054095015 2 0
-2.0188894 2.8340693 -0.051319301 11 0
-2.0184503 2.7626703 -0.048648477 10.75 0
-2.020663 2.6856949 -0.045401648 9.5 0
-2.0240953 2.5933092 -0.041394666 8.6000004 0
-2.0301304 2.5351508 -0.03834632 9 0
-2.0277605 1.7704651 -0.00900653 18 0
-2.0556848 1.7334353 -0.0038305223 1 0
-1.972719 1.0125812 0.06744118 1 0
-2.0463231 0.89138365 0.029019237 1 0
-2.0191259 0.65019238 0.035955563 4 0
-2.0015206 0.34067759 0.086181737 17.333334 0
-2.0353951 0.29222581 0.078784972 1 0
-2.032526 0.22162512 0.075802431 1 0
-1.9623226 -0.81905532 0.1092745 9.5 0
-1.9593456 -0.89351815 0.15997054 60.5 0
-1.9593631 3.2281828 -0.074453056 1 0
-1.9065064 1.3680949 -0.0089250952 1 0
-1.9147785 1.3402234 -0.0067047179 3 0
-1.912699 1.1575915 0.00055642426 3 0
-1.9386179 1.0772839 0.0072719604 4.3333335 0
-1.9525683 1.0026109 0.05353272 1.1111112 0
-1.9706022 0.94499576 0.016978249 1 0
-1.9527751 0.33958074 0.081706643 2 0
-1.9184344 0.29128325 0.080294535 11.5 0
-1.9097878 0.20548481 0.043157652 9 0
-1.883225 0.097021312 0.085194558 100 0
-1.8812145 0.038398087 0.087814659 100 0
-1.8813343 -0.1650058 0.098694369 100 0
-1.9221122 -0.81855112 0.10413764 69.75 0
-1.9166504 -0.89598113 0.15594172 1 0
-1.9253107 3.2170458 -0.078660905 1 0
-1.8763642 1.4150863 -0.01478608 1 0
-1.8909369 1.3447839 -0.010006472 1.5 0
-1.8978387 1.0069617 0.0049672872 3 0
-1.8348382 0.27881598 0.073159494 32.900002 0
-1.8284602 0.21211129 0.057099879 39.5 0
-1.8523248 0.11481509 0.074574023 74.666664 0
-1.8618351 0.039374962 0.077220432 82.714287 0
-1.8602073 -0.035788395 0.070252843 113.96296 0
-1.8541429 -0.1143054 0.073095478 109.03846 0
-1.849516 -0.19495133 0.077208668 100 0
-1.8436434 -0.25198013 0.0781027 98 0
-1.8049494 -0.86730862 0.092440024 71.333336 0
-1.8089204 -0.90731877 0.14631835 78.333336 0
-1.776579 -1.7229977 0.14629696 32 0
-1.772539 1.4779595 -0.03092587 6 0
-1.7974155 1.2969412 -0.020208523 5 0
-1.7787651 0.8432318 -0.0031936765 7.6666665 0
-1.780458 0.20014623 0.071437888 39 0
-1.7788131 0.12682551 0.03091915 1 0
-1.7721606 0.058791295 0.033642069 8.125 0
-1.7484435 -0.86676121 0.11642829 64 0
-1.7139349 -0.87299371 0.10769144 65 0
-1.7396014 -1.6579456 0.13698113 8.333333 0
-1.7489697 -1.7038594 0.14136519 29.6 0
-1.6878697 -2.0231051 0.15546125 49 0
-1.7321961 -2.0879972 0.16583201 9 0
-1.6823106 -2.2148364 0.16810812 24 0
-1.6963831 -2.9841623 0.22430252 23.75 0
-1.704092 -3.0694671 0.23140649 1 0
-1.6764344 -3.1772559 0.23535818 33 0
-1.6916616 -3.2085619 0.23964033 35 0
-1.6655473 -3.5414147 0.25987074 6 0
-1.6643506 -3.5986841 0.26380244 11 0
-1.7135193 2.4719231 -0.078435808 34.285713 0
-1.6999751 1.557359 -0.043654948 18.5 0
-1.6715257 1.458657 -0.043280497 9 0
-1.685113 1.4362454 -0.040584311 7 0
-1.681514 1.2173873 -0.031853005 6 0
-1.667246 1.1563967 -0.031085089 1 0
-1.6929522 0.919366 -0.01748924 10 0
-1.6975104 0.21270281 0.063453197 9 0
-1.6684375 -0.86358017 0.10173103 64.5 0
-1.6773175 -0.87544829 0.076821998 70.666664 0
-1.6123096 -1.9845158 0.14285657 8 0
-1.6569515 -2.007513 0.15031353 49.714287 0
-1.6584097 -2.1116893 0.15774912 21 0
-1.6432134 -2.1989808 0.16183487 24.5 0
-1.6777899 -2.2589684 0.17060012 23.5 0
-1.6745712 -2.3292773 0.1751036 22.666666 0
-1.6659709 -2.4121809 0.17978473 21 0
-1.658108 -2.4972529 0.18472475 19.666666 0
-1.6543701 -2.5636435 0.18890405 20 0
-1.6280724 -2.975939 0.21455197 29.25 0
-1.6518502 -3.6879094 0.26849085 9 0
-1.6287339 2.4721611 -0.089744031 42.857143 0
-1.6529659 1.5719724 -0.050384134 37.625 0
-1.6604331 1.5019367 -0.046517581 30 0
-1.641459 1.158703 -0.034495652 1.625 0
-1.6505834 0.95864737 -0.024621785 10 0
-1.5978642 0.19933549 0.055112153 68.5 0
-1.6291252 -0.31197003 0.085259564 1 0
-1.5837991 -0.86187518 0.064166725 51.57143 0
-1.5192888 -2.9356248 0.19714975 17 0
-1.5619771 -2.9605956 0.20461769 21.25 0
-1.5643691 2.4635699 -0.097958297 42.111111 0
-1.5543276 0.19048339 0.034258902 48.333332 0
-1.5380642 -0.33013085 0.026195392 1 0
-1.4819206 -0.85915703 0.051175207 61 0
-1.4662318 -2.1625056 0.13602304 12 0
-1.4721854 -2.9357314 0.19087656 63 0
-1.471086 -2.9736395 0.19340479 74 0
-1.4914821 2.4589934 -0.10743925 41.875 0
-1.4321333 1.4564698 -0.074150801 12 0
-1.4530886 1.1183704 -0.056837142 9 0
-1.4305327 -0.85465115 0.044437453 58 0
-1.4037725 2.5143778 -0.12124816 24 0
-1.3855623 2.2764738 -0.1141001 11 0
-1.3711777 2.2079556 -0.11321649 25.142857 0
-1.3724428 2.1444678 -0.11047238 17.666666 0
-1.3668654 1.5089508 -0.084791243 25.5 0
-1.4117055 1.412105 -0.074886203 3 0
-1.4113877 1.3351698 -0.071620256 2 0
-1.3881291 1.1770386 -0.067703396 10 0
-1.3456099 -0.84947228 0.03345786 47.25 0
-1.2887537 -2.1708474 0.11340758 10 0
-1.3554004 2.552721 -0.12917006 1 0
-1.3341256 1.5115153 -0.089114547 26.200001 0
-1.321189 1.3858269 -0.085371614 37.142857 0
-1.3161941 1.3251215 -0.083373815 38 0
-1.3186295 1.2600633 -0.080218196 28.142857 0
-1.2378541 -2.1777308 0.10725199 44 0
-1.192027 -0.4509058 -0.0097214878 1.5 0
-1.1707026 -0.50017869 -0.0094842911 1 0
-1.1892014 -0.62675762 0.00032119453 3 0
-1.1714147 -0.67328888 0.00090257823 1.6666666 0
-1.1661818 -0.73851752 0.0041944087 1 0
-1.1553942 -0.82985759 0.0084294826 1 0
-1.1520114 -0.91050732 0.012983873 1 0
-1.164886 -2.1646378 0.096874602 41.200001 0
-1.1515795 -0.42894015 -0.016018629 1 0
-1.1379718 -0.52294225 -0.012212932 1 0
-1.1424071 -0.6612674 -0.0034346581 1.25 0
-1.13627 -0.74912041 0.00110811 1 0
-1.133489 -0.82299417 0.0052693188 1 0
-1.1352788 -0.88901579 0.0095576346 1 0
-1.0921563 -2.0363703 0.078752741 32 0
-1.0859591 -2.0937352 0.081831858 35.75 0
-1.0862621 -2.1662002 0.086784631 41 0
-5.0583658 1.2721474 0.54245365 83 0
-5.0540075 0.95984066 0.55063921 7 0
-5.0946016 0.78446722 0.56422508 1 0
-5.0615654 0.72497916 0.56002367 1 0
-5.065609 0.63291919 0.56421638 1 0
-5.0565152 0.57399285 0.56475651 1 0
-5.0528269 0.51897293 0.56623524 1 0
-5.0520134 0.45215338 0.56884009 1 0
-5.029448 1.2836998 0.53676075 57.222221 0
-5.0499935 1.2180371 0.54233718 44.900002 0
-5.0424728 1.1199638 0.54365349 35.57143 0
-5.0383458 1.0549942 0.54477054 25.272728 0
-5.0357165 0.97560537 0.54668319 12 0
-5.0296555 0.89318877 0.54815125 7.7272725 0
-5.0220881 0.8312642 0.54875696 3 0
-5.0272136 0.72714877 0.5533551 1 0
-5.025631 0.65791267 0.55558389 1 0
-5.0439768 0.55693728 0.56300169 1 0
-5.0281525 0.48918432 0.56268597 1 0
-5.0119977 0.41162202 0.56280994 1.4166666 0
-4.9976811 0.33523118 0.56337166 1.6428572 0
-4.9836893 0.28018641 0.56313717 2.2 0
-4.9781694 0.068496823 0.57235599 37 0
-4.9747162 0.020631142 0.57417679 6.7857141 0
-4.9681726 -0.063975222 0.57744724 13.714286 0
-4.9644365 -0.11528394 0.579561 26.25 0
-4.9621172 -0.21988395 0.58514476 40 0
-4.9581347 -0.2977404 0.58904195 30 0
-4.9579773 -0.3673237 0.59332085 14 0
-4.9366269 1.2893008 0.51934993 50.111111 0
-4.9215183 0.086966753 0.56034863 10.333333 0
-4.9588881 -0.01287058 0.57285511 7 0
-4.9574604 -0.055790395 0.57490635 12 0
-4.9506898 -0.13299337 0.57787389 19.333334 0
-4.9491315 -0.22887585 0.58313543 49.285713 0
-4.9476023 -0.30672097 0.58753896 29 0
-4.9467311 -0.39080283 0.59262013 11 0
-4.9360275 -0.46227017 0.59514689 6.7333331 0
-4.9267111 -0.54110813 0.5985781 5.3333335 0
-4.9184918 -0.62122154 0.60247457 2.6666667 0
-4.9219651 -0.6999988 0.60869604 2.1538463 0
-4.9235554 -0.78045171 0.61482334 2.0666666 0
-4.9195738 -0.82461905 0.61730862 1 0
-4.8553209 1.2946899 0.50414979 51.875 0
-4.8282351 0.090718508 0.54194468 10 0
-4.8014441 2.3375833 0.47617531 67.875 0
-4.766202 1.3053483 0.4874582 34.599998 0
-4.7791624 0.49305421 0.51441884 1 0
-4.7531366 0.097660914 0.55904794 11.25 0
-4.7141142 2.336431 0.46104789 59.799999 0
-4.7001624 1.3043233 0.47534147 54.42857 0
-4.6832585 0.10163522 0.54397666 11.666667 0
-4.6398892 -0.78518617 0.56073022 1 0
-4.6323767 2.3462062 0.44684565 60.666668 0
-4.6299238 1.30854 0.46239221 54 0
-4.6007972 0.1058877 0.52198231 13.857142 0
-4.6233463 -0.7739718 0.55671352 1 0
-4.5571113 2.3490188 0.43392146 65.125 0
-4.5272179 1.3580931 0.44272202 65.25 0
-4.5454254 1.3152503 0.44686013 60.333332 0
-4.5357428 0.18180603 0.53757584 77 0
-4.5210481 0.11199918 0.5089401 16.25 0
-4.4965129 -0.77653509 0.56291461 1 0
-4.4816642 2.5524185 0.4191421 37.5 0
-4.4718151 2.4877217 0.41807508 32.25 0
-4.4758854 2.4336324 0.41926861 33 0
-4.4929562 2.3533309 0.42294914 55.333332 0
-4.4334369 1.6757497 0.42074803 52.5 0
-4.4642811 1.3616376 0.43129957 55.153847 0
-4.4529066 0.15285562 0.51965487 59.5 0
-4.4457235 0.12592064 0.51914048 57.285713 0
-4.427052 -0.78551435 0.54647005 3.7931035 0
-4.4210024 -0.85513276 0.5561716 4.21875 0
-4.413887 -0.93307024 0.55890578 3.7272727 0
-4.4130144 -1.0182111 0.56851608 1.8709677 0
-4.4158478 -1.0731986 0.59426135 5.1666665 0
-4.4393735 -1.1704347 0.55439913 52.545456 0
-4.4359608 -1.2526602 0.56098306 54.5 0
-4.4230084 -1.3343955 0.5659098 62.75 0
-4.4216504 -1.3788301 0.56966865 64 0
-4.4071569 -1.4931324 0.57752073 58.599998 0
-4.4054613 -1.5752852 0.58486307 65.666664 0
-4.4031668 -1.6619473 0.59260857 54.200001 0
-4.3908372 -1.7395434 0.59780353 22 0
-4.3769007 -1.8166491 0.60275114 10.5 0
-4.3810973 -1.8690431 0.60855424 6 0
-4.3799191 -1.9475013 0.61598206 1 0
-4.4136405 2.2713275 0.41030076 36 0
