# .PCD v0.7 - Point Cloud Data file format
VERSION 0.7
FIELDS x y z intensity ring
SIZE 4 4 4 4 2
TYPE F F F F U
COUNT 1 1 1 1 1
WIDTH 1299
HEIGHT 1
VIEWPOINT 0 0 0 1 0 0 0
POINTS 1299
DATA ascii
3.7006068 -2.1010625 0.86082482 60 10
2.3160706 -0.97693348 0.12925026 7 3
3.6921468 -2.0969636 1.0052704 53 11
3.7001312 -2.1053166 1.1535833 47 12
2.3381343 -0.99754333 0.29256934 2 5
3.6913116 -2.1009161 1.3002529 48 13
2.6547956 -1.2567821 0.35429668 53 6
3.6743677 -2.0889513 1.4456942 48 14
2.7649474 -1.3485631 0.44896916 64 7
3.6859174 -2.1011496 1.6020516 43 15
1.6086148 -0.40868378 0.11591253 8 0
3.6900973 -2.1157165 0.57200861 63 8
1.7729963 -0.54453504 0.11983272 6 1
3.6802111 -2.1103959 0.71562415 54 9
1.9899787 -0.72344708 0.12525111 5 2
3.6854038 -2.1165204 0.86065042 60 10
2.3174686 -0.99394822 0.12737304 7 3
3.6723716 -2.1085985 1.0042953 53 11
2.5098517 -1.1532617 0.18045855 8 4
3.6711926 -2.1094851 1.1504545 47 12
2.3210394 -0.99954867 0.29361522 12 5
3.6761348 -2.1163414 1.2998714 48 13
2.7534626 -1.3569504 0.34696966 90 6
3.668287 -2.1117346 1.4479437 55 14
2.7444396 -1.3514891 0.4492135 94 7
3.6677835 -2.1141067 1.6004987 45 15
1.5949159 -0.40708148 0.11901835 8 0
3.6732786 -2.129832 0.57193881 66 8
1.7735097 -0.55616224 0.11803311 6 1
3.6664994 -2.1270118 0.71562415 57 9
1.9835525 -0.73123169 0.12525111 6 2
3.6655288 -2.1280725 0.85995317 58 10
2.3035438 -0.99839497 0.12862453 7 3
3.664777 -2.1302483 1.0052704 50 11
2.2233548 -0.93279016 0.224819 5 4
3.6574857 -2.1260533 1.1504545 47 12
2.3177571 -1.0128864 0.29309228 11 5
3.659374 -2.1304235 1.299108 34 13
2.7621248 -1.3840624 0.34571359 87 6
3.6515744 -2.1257927 1.4470439 45 14
2.7362504 -1.3644965 0.44917858 83 7
3.6421845 -2.1207583 1.5963575 45 15
1.587189 -0.41032124 0.12005362 8 0
3.6456683 -2.1348546 0.5716247 57 8
1.7651603 -0.56009138 0.1189329 6 1
3.6511705 -2.1422715 0.71551949 60 9
1.9755814 -0.73772097 0.12563273 6 2
3.6456194 -2.1394882 0.85925597 56 10
2.289885 -1.002424 0.12987599 7 3
3.6483829 -2.1436803 1.0047829 56 11
2.203671 -0.9315778 0.22676891 12 4
3.6406689 -2.1400077 1.1498289 52 12
2.3451498 -1.0515599 0.28908312 8 5
3.6385076 -2.1400619 1.2972 40 13
2.7384772 -1.384305 0.34665564 83 6
3.6407638 -2.144769 1.4479437 47 14
2.7267847 -1.3757913 0.44917858 79 7
3.6392207 -2.1453419 1.599981 28 15
1.5943668 -0.42579395 0.11591253 8 0
3.6322916 -2.1507423 0.5716247 61 8
1.7493671 -0.55766737 0.12208223 7 1
3.6362324 -2.1568966 0.71541482 30 9
1.9767865 -0.75152004 0.12372464 6 2
3.6550164 -2.1747022 0.86187065 13 10
2.2536328 -0.98718858 0.13582054 6 3
2.1964033 -0.94018245 0.22676891 8 4
3.7088804 -2.2271109 1.3185706 9 13
2.7258682 -1.393023 0.346865 84 6
2.7233534 -1.3922222 0.44903898 79 7
3.7537649 -2.2701502 1.6450155 8 15
1.5867295 -0.42881089 0.1169478 8 0
1.7482544 -0.56799519 0.12073252 7 1
3.7456512 -2.2779317 0.72389328 9 9
1.9734157 -0.76153243 0.1229614 6 2
3.7655215 -2.2969139 0.8761642 9 10
2.1858282 -0.94492948 0.14833528 14 3
3.8033402 -2.332305 1.0342753 8 11
2.2915525 -1.0366313 0.21019468 7 4
3.8026798 -2.3337398 1.1892503 8 12
2.7115178 -1.3988503 0.2449823 102 5
3.8062551 -2.3398139 1.3471919 9 13
2.7071691 -1.396455 0.34749299 75 6
3.8266413 -2.3593435 1.5127296 9 14
2.7103832 -1.4012294 0.44910878 77 7
3.8461161 -2.3791299 1.682803 11 15
1.5789276 -0.43196267 0.11798307 8 0
2.8467798 -1.5278316 0.55413735 5 8
1.7455933 -0.57706547 0.11983272 7 1
3.8700323 -2.4150982 0.73352307 15 9
1.9638212 -0.76666045 0.12372464 6 2
3.8818903 -2.4274189 0.89132929 22 10
2.1857047 -0.96020317 0.14677092 28 3
3.8964808 -2.443161 1.0518245 60 11
2.1859832 -0.9614749 0.22603768 12 4
3.8997285 -2.4480541 1.2127155 71 12
2.278692 -1.0434703 0.29396385 44 5
3.9173603 -2.4664798 1.3796295 100 13
2.6972091 -1.4079859 0.34749299 78 6
2.6868155 -1.4009697 0.44942293 77 7
1.5740333 -0.43759918 0.11798307 8 0
2.8361301 -1.5400913 0.55413735 59 8
1.7459962 -0.58848464 0.11803311 6 1
3.9043446 -2.4760826 0.73697722 76 9
1.966036 -0.78206205 0.12143493 6 2
3.896507 -2.471323 0.8948155 92 10
2.1649137 -0.95700836 0.14958677 7 3
3.9019306 -2.4792144 1.0552368 86 11
2.1499379 -0.94542921 0.23066872 41 4
3.8901882 -2.4710219 1.213967 87 12
2.2738533 -1.0550802 0.29361522 10 5
3.9047332 -2.4869213 1.3803928 100 13
2.6871889 -1.4194642 0.34749299 80 6
3.8946359 -2.4801617 1.542873 90 14
2.6711555 -1.4067358 0.44956255 77 7
3.8816013 -2.4708092 1.7060968 93 15
1.5633144 -0.43809754 0.12005362 8 0
2.8089237 -1.53774 0.55375344 100 8
1.7432017 -0.59757304 0.11713332 7 1
3.893729 -2.4972417 0.73729128 99 9
1.944815 -0.77646732 0.12525111 6 2
3.8779178 -2.4864271 0.89446688 100 10
2.1543026 -0.96308863 0.1502125 22 3
3.8808613 -2.4911332 1.0542619 90 11
2.1634121 -0.97218037 0.22725639 73 4
3.8775434 -2.4913518 1.2145927 92 12
2.2910388 -1.086808 0.29065192 27 5
3.8645937 -2.4819794 1.3739053 92 13
2.6774457 -1.4305096 0.34749299 70 6
3.8780503 -2.4960122 1.5424232 81 14
2.6626379 -1.4194051 0.44952765 75 7
3.8616657 -2.4846265 1.7045439 90 15
1.5729744 -0.45632136 0.11487725 8 0
2.7806692 -1.5334308 0.55333453 79 8
1.7199887 -0.58849907 0.12253213 7 1
3.8720284 -2.50965 0.73687255 97 9
1.9468986 -0.7918601 0.1229614 6 2
3.8642449 -2.5048134 0.89464122 100 10
2.1436734 -0.96909785 0.15083823 6 3
3.8547947 -2.4995322 1.0525557 89 11
2.1349664 -0.96234226 0.23066872 26 4
3.8579431 -2.5044575 1.213654 89 12
2.3391111 -1.146667 0.28402805 52 5
3.8518591 -2.5021753 1.3746685 91 13
2.4709558 -1.2659557 0.36130971 75 6
3.857964 -2.5097563 1.5410734 79 14
2.4783885 -1.2744837 0.45361149 77 7
3.8431163 -2.4996068 1.7035086 80 15
1.5650817 -0.45934045 0.11591253 8 0
2.7774193 -1.5520372 0.55350906 50 8
1.7128253 -0.59356689 0.12298203 7 1
3.8399098 -2.5125494 0.73572117 93 9
1.9371994 -0.79678786 0.12372464 6 2
3.8499441 -2.5237222 0.8948155 100 10
2.1403565 -0.98165584 0.14989963 28 3
3.8316784 -2.5104022 1.051337 90 11
2.1611583 -1.0014986 0.22506276 47 4
3.8392351 -2.5193479 1.2130284 89 12
2.3600113 -1.1830094 0.28054184 73 5
3.8331826 -2.5170493 1.3739053 91 13
2.4646435 -1.2789321 0.36110038 76 6
3.8320484 -2.5181396 1.5379242 82 14
2.4631438 -1.2794459 0.45375112 79 7
3.8302269 -2.5196652 1.7045439 81 15
1.5571866 -0.46230316 0.1169478 8 0
2.7636862 -1.5612407 0.55343926 61 8
1.707083 -0.59990215 0.12298203 7 1
3.8196616 -2.52596 0.73540711 88 9
1.924587 -0.79900408 0.12525111 6 2
3.8311224 -2.5385351 0.89446688 100 10
2.1252816 -0.98356581 0.15146396 7 3
3.8173361 -2.529144 1.0515807 83 11
3.8087978 -2.5234659 1.2098997 89 12
2.2438383 -1.0945767 0.29326659 48 5
3.8274803 -2.5437357 1.3765767 89 13
2.4582489 -1.2918913 0.36089101 83 6
3.8127954 -2.5334904 1.5370244 81 14
2.4420033 -1.2788949 0.45403036 85 7
3.8100975 -2.5331454 1.702991 77 15
1.5405923 -0.45754403 0.12108889 7 0
2.7348454 -1.5572062 0.55302042 11 8
1.7156427 -0.61940801 0.11848301 7 1
3.809648 -2.5487127 0.73582584 90 9
1.9117639 -0.80137002 0.12677759 6 2
3.8014512 -2.5443587 0.89289808 94 10
2.127655 -1.001431 0.1492739 28 3
3.8072667 -2.5518572 1.0525557 89 11
2.1465373 -1.0204453 0.224819 12 4
3.7923911 -2.5413244 1.2098997 89 12
2.2076623 -1.0779942 0.2965785 52 5
3.8028476 -2.5531206 1.3742869 89 13
2.4455929 -1.2997473 0.36110038 110 6
3.801158 -2.5547657 1.5383741 79 14
2.4326625 -1.2890389 0.45403036 79 7
3.7837179 -2.5418205 1.6993675 81 15
1.541223 -0.46824175 0.11901835 8 0
2.5922699 -1.4462997 0.54987895 18 8
1.7012053 -0.61779237 0.12118241 7 1
1.9135498 -0.81677341 0.12448788 6 2
3.7796352 -2.5561695 0.89220083 96 10
2.1660092 -1.053035 0.13926211 7 3
3.7834477 -2.5629358 1.051337 88 11
2.0979166 -0.99112427 0.23164368 41 4
3.7850852 -2.5666089 1.211777 91 12
2.1673403 -1.0569978 0.30041334 15 5
3.7748046 -2.5602226 1.3712339 89 13
2.4390612 -1.3126378 0.36089101 105 6
3.7794247 -2.5666847 1.5365745 79 14
2.3385689 -1.2199004 0.45605484 34 7
3.7682796 -2.5584018 1.6993675 81 15
1.5389546 -0.47632617 0.11798307 8 0
2.5922499 -1.4668157 0.55012333 29 8
1.6910771 -0.62006152 0.12253213 7 1
2.7897696 -1.6540003 0.66475362 30 9
1.9068669 -0.82391095 0.12448788 6 2
3.7679396 -2.5773978 0.8927238 98 10
2.1880498 -1.0901815 0.13269183 7 3
3.7592347 -2.5713468 1.0498745 93 11
3.7661092 -2.5810566 1.2111511 91 12
2.1780028 -1.083483 0.29814729 12 5
3.7564187 -2.5740631 1.3704708 94 13
2.4153402 -1.3087162 0.36193776 102 6
3.7709436 -2.5899346 1.538824 81 14
2.22927 -1.1347177 0.45846328 81 7
3.7522211 -2.5754726 1.6993675 80 15
1.5396042 -0.48689222 0.11591253 8 0
2.5793676 -1.4746263 0.55005348 31 8
1.6908466 -0.63165224 0.12073252 6 1
2.7697744 -1.6577032 0.66412556 55 9
1.8984931 -0.82990623 0.1248695 5 2
3.7537656 -2.5952721 0.89289808 96 10
2.1882854 -1.1071702 0.13081461 6 3
3.7402334 -2.5856328 1.049387 90 11
2.1672785 -1.0882828 0.2172631 9 4
3.7504737 -2.5975478 1.2111511 89 12
2.1740146 -1.0963724 0.29762438 12 5
3.7431192 -2.5937817 1.3712339 94 13
2.4029541 -1.3159622 0.36214709 105 6
3.7378054 -2.590872 1.5334252 81 14
2.2279167 -1.1506559 0.45828876 100 7
3.7388668 -2.5951278 1.7004027 80 15
1.528846 -0.48697257 0.11798307 8 0
2.5704429 -1.4868714 0.55008841 28 8
1.6905274 -0.64327109 0.1189329 6 1
2.6821079 -1.5962248 0.65857798 48 9
1.892926 -0.83857083 0.12448788 6 2
3.7288966 -2.6039813 0.89185226 96 10
2.1841178 -1.1200966 0.12987599 7 3
3.7211719 -2.5998032 1.0488997 90 11
2.1975529 -1.1341623 0.21068215 7 4
3.7199817 -2.6008227 1.2080224 91 12
2.1613293 -1.1009679 0.29814729 16 5
3.7282894 -2.6120825 1.3716155 92 13
2.3948572 -1.3272877 0.3620424 100 6
3.7187719 -2.6050766 1.5325253 82 14
2.2019858 -1.1430147 0.4587076 88 7
3.7198372 -2.6093605 1.6993675 81 15
1.5125675 -0.4815889 0.1221242 8 0
2.5542696 -1.4921166 0.54994881 32 8
1.6831263 -0.64813173 0.11938283 7 1
2.6711023 -1.6076217 0.65857798 48 9
1.8887151 -0.84858131 0.12372464 6 2
3.7068834 -2.6152925 0.891155 96 10
2.16853 -1.1220076 0.13144034 6 3
3.7162824 -2.6276979 1.0508494 93 11
2.1590924 -1.1139601 0.21580067 9 4
3.7008703 -2.6148849 1.2073967 89 12
2.1443594 -1.1013045 0.29919317 15 5
3.7077312 -2.6248338 1.3704708 97 13
2.389555 -1.3413658 0.36172837 102 6
3.7080517 -2.6273284 1.5343249 82 14
2.2062421 -1.1644707 0.45839345 40 7
3.6979828 -2.6207798 1.697297 81 15
1.5184543 -0.49769229 0.11798307 8 0
2.5380974 -1.4972467 0.54980916 32 8
1.6729246 -0.65021753 0.12073252 5 1
2.6814237 -1.63994 0.66014802 30 9
1.8858386 -0.85995924 0.12257978 6 2
3.6905277 -2.6320412 0.891155 91 10
2.1557868 -1.1265688 0.13237897 7 3
3.6913667 -2.6361475 1.049387 90 11
2.1435409 -1.115667 0.21701938 10 4
3.6873341 -2.6343718 1.2080224 89 12
2.1444728 -1.1182773 0.29814729 19 5
3.6829319 -2.6333227 1.368181 94 13
2.3770413 -1.3484313 0.36193776 105 6
3.6902447 -2.6427152 1.533875 86 14
2.200352 -1.1761895 0.45832366 10 7
3.6815982 -2.6374815 1.697297 81 15
1.5077248 -0.49757475 0.12005362 8 0
2.5247703 -1.5050769 0.54973936 34 8
1.6558123 -0.64536965 0.12433174 6 1
2.7099047 -1.6907034 0.66307884 28 9
1.874517 -0.86304939 0.12372464 5 2
3.6769137 -2.6515098 0.89150357 92 10
2.1416397 -1.1296495 0.13363045 7 3
3.6650422 -2.6430225 1.0476809 89 11
2.1378756 -1.1270484 0.21653187 9 4
3.6722796 -2.6524105 1.2083354 92 12
2.1345644 -1.1254603 0.2983216 18 5
3.669266 -2.652715 1.3689442 92 13
2.3602588 -1.3511901 0.36246109 98 6
3.675127 -2.6607504 1.5343249 81 14
2.2099695 -1.2034161 0.45786989 4 7
3.6596525 -2.648643 1.6952263 81 15
1.5161457 -0.51650023 0.11487725 8 0
2.477493 -1.478874 0.54883182 21 8
1.6580611 -0.65967941 0.12163234 6 1
2.718159 -1.7220333 0.66454422 30 9
1.8659745 -0.86883831 0.12410626 5 2
3.6603687 -2.6681006 0.89150357 92 10
2.1470304 -1.1522126 0.13050172 7 3
3.6289246 -2.6398659 1.0442685 55 11
2.1013141 -1.1074746 0.22140667 12 4
3.5888245 -2.6017902 1.1933177 33 12
2.1330581 -1.1410581 0.29745007 22 5
3.3536429 -2.3686242 1.2865148 39 13
2.3449073 -1.3552399 0.36287978 100 6
3.3466649 -2.3636072 1.4321971 52 14
2.2771294 -1.2889546 0.45598504 39 7
3.353178 -2.3731661 1.5849695 50 15
1.4999404 -0.51081979 0.11901835 8 0
1.6494367 -0.66275418 0.12253213 6 1
2.762639 -1.7904525 0.66873115 10 9
1.8532706 -0.87038398 0.12563273 5 2
2.1358719 -1.1577158 0.13112751 7 3
3.3448246 -2.3848257 0.99747074 61 11
3.3548565 -2.3970206 1.1441972 52 12
2.061811 -1.0854315 0.30529407 71 5
3.3440931 -2.3891225 1.2880411 51 13
2.3421724 -1.3719922 0.36235642 102 6
3.3357317 -2.3826406 1.4335468 45 14
2.3297443 -1.3606616 0.45444921 67 7
3.3345361 -2.3834376 1.5834166 35 15
1.4919311 -0.51328051 0.12005362 8 0
2.1643517 -1.200767 0.54153675 100 8
1.6528721 -0.6785078 0.11938283 7 1
2.8808832 -1.9346759 0.6784656 3 9
1.8408275 -0.87160039 0.12715921 5 2
2.5953538 -1.6449409 0.76233876 48 10
2.1271694 -1.1662585 0.13112751 7 3
3.3274136 -2.3963466 0.99698317 46 11
2.0361521 -1.0741534 0.22993752 100 4
3.3217196 -2.393544 1.1401298 32 12
2.0493164 -1.0893071 0.30581701 100 5
3.3239527 -2.397856 1.2865148 43 13
2.3312802 -1.3798616 0.36246109 100 6
3.3156669 -2.391372 1.4317472 45 14
2.3213716 -1.3716497 0.45441431 84 7
3.3086228 -2.3871617 1.5792755 42 15
1.4921675 -0.52383745 0.11798307 8 0
2.1445911 -1.1976792 0.5412575 100 8
1.6439748 -0.68172777 0.12028262 7 1
2.8944921 -1.9743783 0.68045437 6 9
1.8472778 -0.89271247 0.12334302 6 2
2.6135559 -1.685596 0.76599932 29 10
2.1156774 -1.1719142 0.13175324 7 3
3.3066926 -2.4054003 0.99600828 48 11
2.0292678 -1.0836031 0.22969377 100 4
3.3166428 -2.417737 1.14232 45 12
2.0382071 -1.0945299 0.30616564 100 5
3.2910247 -2.3942311 1.2815537 42 13
2.3255706 -1.393738 0.36214709 105 6
3.2977846 -2.4032688 1.4308474 48 14
2.2227726 -1.2889752 0.45664823 68 7
3.2827489 -2.3906937 1.5751344 42 15
1.4894674 -0.53180683 0.1169478 8 0
1.6310314 -0.68066514 0.12253213 6 1
2.9630053 -2.07199 0.68663001 46 9
1.8358941 -0.89549327 0.12448788 6 2
2.6626945 -1.759969 0.773669 22 10
2.1069012 -1.180351 0.13175324 7 3
3.2818396 -2.4100122 0.99430209 63 11
2.0168409 -1.087283 0.230425 100 4
3.3013268 -2.4324453 1.14232 52 12
2.0215821 -1.0939149 0.30721152 100 5
3.2704108 -2.4031236 1.2800272 45 13
2.3046012 -1.3917096 0.36298448 45 6
3.2771654 -2.4122369 1.4290478 45 14
2.1347485 -1.2154554 0.4586378 100 7
3.2569153 -2.3940344 1.5709932 42 15
1.4893705 -0.54257894 0.11487725 8 0
1.6275152 -0.68939972 0.12163234 7 1
3.0841374 -2.2269232 0.69688785 17 9
1.8150675 -0.88821602 0.12830406 5 2
2.6850801 -1.8074286 0.77802682 31 10
2.1007962 -1.1916114 0.13112751 7 3
3.2692935 -2.4274223 0.9947896 94 11
1.9962336 -1.0822226 0.23261866 100 4
3.290005 -2.4513791 1.1432586 56 12
2.0132158 -1.10186 0.30721152 100 5
3.251128 -2.4133081 1.2788824 42 13
3.2399721 -2.4045396 1.4218494 47 14
2.1257439 -1.2239913 0.4586378 100 7
3.2430501 -2.4098356 1.5715109 45 15
1.4757819 -0.53946567 0.11798307 8 0
2.1201582 -1.2265004 0.5413273 100 8
1.6279383 -0.70239365 0.11938283 7 1
3.2446983 -2.4268987 0.7102859 46 9
1.80351 -0.8910135 0.12944889 5 2
2.7107029 -1.8599305 0.78290749 31 10
2.0932674 -1.2014117 0.13081461 7 3
3.240361 -2.4273896 0.99235213 96 11
1.9876512 -1.0902946 0.23261866 100 4
3.2483604 -2.4390175 1.1373141 61 12
2.0116107 -1.1170386 0.30633992 100 5
3.2331555 -2.4248035 1.2781191 43 13
2.1153293 -1.2298057 0.37596378 15 6
3.2220671 -2.4159975 1.4209497 45 14
2.0894089 -1.2032399 0.45933589 62 7
3.2259481 -2.4232216 1.5709932 42 15
1.4676963 -0.54172993 0.11901835 8 0
2.1056535 -1.2290987 0.5411877 100 8
1.6256045 -0.71256745 0.11803311 7 1
3.2301803 -2.4431701 0.71039057 46 9
1.8108929 -0.91365457 0.12525111 6 2
2.7281146 -1.9036193 0.78674239 30 10
2.0816517 -1.2068328 0.13144034 7 3
3.2204368 -2.437804 0.99162102 83 11
1.9820009 -1.100976 0.23213115 100 4
3.2302506 -2.4504681 1.1366884 63 12
1.9922997 -1.1132303 0.30773443 100 5
3.2012992 -2.4222491 1.2735398 43 13
2.1048944 -1.2367727 0.37606844 44 6
3.2041173 -2.4273467 1.4200498 42 14
2.0709727 -1.2012547 0.45958021 62 7
3.1940827 -2.4185278 1.5642639 50 15
1.4543843 -0.53824878 0.1221242 8 0
2.0857534 -1.2257025 0.54090846 100 8
1.6139669 -0.71270394 0.11983272 7 1
3.2193015 -2.4613645 0.71070457 48 9
1.8023934 -0.91882515 0.12563273 6 2
2.7505159 -1.9534268 0.79127449 31 10
2.0686882 -1.2107232 0.13237897 7 3
3.1974838 -2.4427559 0.99015856 46 11
1.976561 -1.1113834 0.23164368 100 4
3.2174332 -2.4676366 1.1373141 58 12
1.9838324 -1.1210219 0.30773443 100 5
3.1785214 -2.4271936 1.27125 42 13
2.1068676 -1.2566633 0.37523109 8 6
3.1840062 -2.4352434 1.4182502 45 14
2.0755324 -1.2242193 0.45923117 100 7
3.1657357 -2.4183302 1.5590875 75 15
1.4569181 -0.55163932 0.11901835 8 0
2.0783441 -1.2351859 0.54094332 100 8
1.5984267 -0.70842564 0.12298203 7 1
3.1930134 -2.463737 0.70986724 51 9
1.7975867 -0.92853141 0.1248695 6 2
2.7903042 -2.0223124 0.79807264 32 10
2.0583816 -1.2174504 0.13269183 5 3
3.1833725 -2.4583099 0.99040228 52 11
1.9707705 -1.1220336 0.2311562 100 4
3.2090106 -2.4886708 1.1388783 66 12
1.9820122 -1.1361525 0.30686289 100 5
3.152616 -2.4295352 1.2681971 43 13
2.103009 -1.2709757 0.37481236 2 6
3.1633704 -2.4434769 1.4164506 43 14
2.2461996 -1.4312016 0.45455393 112 7
3.1465325 -2.4279485 1.5575346 72 15
1.4565692 -0.56237769 0.1169478 8 0
2.0933175 -1.2701794 0.54157162 100 8
1.5894779 -0.71126258 0.12388185 7 1
3.1667752 -2.4659152 0.70902979 49 9
1.7953389 -0.94114637 0.12334302 6 2
3.149919 -2.4492381 0.84687984 16 10
2.048048 -1.2241167 0.1330047 5 3
3.1545866 -2.457546 0.98796487 45 11
1.9516516 -1.117892 0.23310611 100 4
3.1840923 -2.4925206 1.1366884 63 12
1.9734253 -1.1438899 0.30686289 100 5
3.1372406 -2.4433839 1.2681971 42 13
2.0963793 -1.2823203 0.37460303 34 6
3.1427224 -2.4515738 1.4146509 45 14
2.233397 -1.4373376 0.45462376 117 7
3.129878 -2.4403253 1.557017 67 15
1.4509935 -0.56737161 0.1169478 7 0
2.2183568 -1.4293193 0.54509699 48 8
1.5947813 -0.73005188 0.11983272 7 1
3.1485541 -2.4768531 0.70882046 49 9
1.7773372 -0.93617332 0.12639597 6 2
3.1542981 -2.4854076 0.84949452 53 10
2.0403113 -1.2336752 0.13269183 5 3
3.1456554 -2.4788263 0.9891836 50 11
1.9471146 -1.1299243 0.23237491 100 4
3.163142 -2.5006235 1.1354369 65 12
1.9647975 -1.151582 0.30686289 100 5
3.1178861 -2.4527452 1.2670522 45 13
2.2314205 -1.4535768 0.36319381 27 6
3.1143084 -2.4507847 1.410152 48 14
2.2192531 -1.4418952 0.45472845 105 7
3.1067643 -2.4453752 1.5539112 67 15
1.4351714 -0.56074369 0.12108889 8 0
2.2756615 -1.5148015 0.54687715 56 8
1.578022 -0.72406745 0.12343195 7 1
1.7568296 -0.92810392 0.13021216 6 2
3.1281021 -2.4872971 0.84810007 54 10
2.0299084 -1.2402329 0.1330047 5 3
3.132643 -2.4956195 0.98967105 53 11
1.9372501 -1.1359872 0.23261866 100 4
3.1434839 -2.5100741 1.1344984 66 12
1.9469305 -1.1487465 0.30808306 100 5
3.0998003 -2.4634604 1.266289 40 13
3.0962534 -2.4615021 1.4092522 48 14
2.2051084 -1.4463583 0.45483318 112 7
3.0823975 -2.4488106 1.5502877 71 15
1.4321444 -0.56853712 0.12005362 7 0
2.301888 -1.5662706 0.54785448 120 8
1.5818404 -0.74144852 0.11983272 6 1
2.3983159 -1.6791494 0.65146029 13 9
1.7648065 -0.95243168 0.12563273 6 2
3.107192 -2.4950058 0.84740281 55 10
2.0104041 -1.2362967 0.13550764 5 3
3.1091061 -2.5003753 0.98820865 50 11
2.02634 -1.2558532 0.21433824 82 4
3.1302783 -2.5268557 1.135124 66 12
3.067517 -2.4577584 1.261328 39 13
2.2056324 -1.4655671 0.36361247 51 6
3.0743268 -2.467695 1.4070027 50 14
2.0010419 -1.2316284 0.45999908 100 7
3.0580668 -2.4520717 1.5466642 68 15
1.4341106 -0.58217752 0.1169478 8 0
2.2949636 -1.580219 0.54795921 106 8
1.5600547 -0.72938573 0.12523153 5 1
2.3868799 -1.689059 0.65146029 15 9
1.761029 -0.96349621 0.12448788 6 2
3.0927751 -2.5101254 0.8475771 55 10
2.0154672 -1.2606499 0.1320661 4 3
3.0804136 -2.4989486 0.9857713 43 11
1.9899416 -1.2322165 0.21945676 16 4
3.1169693 -2.543582 1.1357498 66 12
1.9893141 -1.2333225 0.30006474 27 5
3.0481579 -2.4666934 1.2601831 41 13
2.0274768 -1.2789935 0.37711516 13 6
3.051137 -2.472261 1.4043032 52 14
1.9893512 -1.2364285 0.46006888 100 7
3.0425746 -2.465425 1.5466642 65 15
1.4334501 -0.59292972 0.11487725 8 0
2.2853456 -1.5911098 0.54799414 111 8
1.5586622 -0.74084926 0.12343195 5 1
2.3637278 -1.6852322 0.65051824 12 9
1.7558963 -0.97306669 0.12372464 6 2
3.0756862 -2.5221434 0.84740281 55 10
1.9959815 -1.2565298 0.13456902 4 3
3.0633888 -2.5109065 0.98552752 45 11
1.9898572 -1.2505765 0.21775055 46 4
3.1035578 -2.5602522 1.1363754 69 12
1.9853802 -1.2471684 0.29936749 26 5
3.0325894 -2.479995 1.2601831 41 13
2.0155549 -1.2839227 0.37732452 21 6
3.0229249 -2.4707241 1.3998041 56 14
1.9815325 -1.2457275 0.46003398 100 7
3.0195143 -2.4698582 1.5435584 67 15
1.4202334 -0.58894908 0.11798307 7 0
2.2821147 -1.6095946 0.54820353 109 8
1.5546649 -0.74935377 0.12253213 6 1
2.3535485 -1.6964869 0.6506229 13 9
1.7329755 -0.96161473 0.12830406 5 2
3.0572581 -2.532542 0.84705412 54 10
1.9969473 -1.2764231 0.1320661 7 3
3.0437517 -2.5197327 0.98479629 43 11
1.9717202 -1.2477243 0.21945676 22 4
3.0836823 -2.5693083 1.1354369 68 12
1.9851894 -1.2655946 0.29814729 29 5
3.0055799 -2.479691 1.2567484 44 13
2.0023384 -1.2872469 0.37763852 40 6
3.0010676 -2.4764338 1.3975546 53 14
1.9646562 -1.2442725 0.4602434 100 7
2.9915094 -2.4682131 1.5383821 63 15
1.3984096 -0.57448578 0.12471238 7 0
2.2646322 -1.6112251 0.54802901 106 8
1.5556042 -0.76383257 0.11983272 5 1
2.3484228 -1.7138274 0.65114629 18 9
1.7253056 -0.9680506 0.12830406 5 2
3.0324101 -2.5351813 0.84583402 57 10
1.9838305 -1.279685 0.1330047 7 3
3.029177 -2.5345345 0.98504007 45 11
2.0222709 -1.3270864 0.20800102 35 4
3.0625193 -2.5767226 1.1341854 68 12
1.9644537 -1.2595643 0.29971611 31 5
2.9886885 -2.4912601 1.256367 41 13
1.9904053 -1.2920178 0.37784788 71 6
2.9804657 -2.4834943 1.3957551 53 14
1.9555032 -1.2519175 0.4602434 100 7
2.9759336 -2.4812179 1.5383821 48 15
1.4038539 -0.59257174 0.12005362 7 0
2.2497306 -1.6158125 0.54792428 116 8
1.5514551 -0.77234674 0.1189329 6 1
2.3368063 -1.7234755 0.65114629 19 9
1.7251029 -0.98352897 0.12601435 5 2
3.0076044 -2.5376441 0.84461379 55 10
1.9719777 -1.2843821 0.13363045 7 3
3.0119903 -2.5462043 0.98479629 46 11
2.0240474 -1.3488175 0.20580739 9 4
3.0463746 -2.5900977 1.1341854 68 12
1.9564872 -1.2687463 0.29954177 27 5
2.9567714 -2.484545 1.251406 39 13
1.9936926 -1.3152193 0.37680113 52 6
2.9635718 -2.4949362 1.3953052 52 14
1.9513893 -1.2656937 0.46010381 100 7
2.9504788 -2.4822001 1.534241 45 15
1.3981209 -0.5972892 0.12005362 7 0
2.2246993 -1.6079211 0.54754037 106 8
1.5301964 -0.75955105 0.12433174 6 1
2.3226106 -1.7299697 0.6509369 19 9
1.7123497 -0.98384202 0.1275408 5 2
2.9941857 -2.553818 0.84496242 54 10
1.9629271 -1.2918097 0.13363045 7 3
2.9884768 -2.5500867 0.98333383 48 11
1.8813548 -1.1937083 0.23164368 28 4
3.0314085 -2.6049194 1.1344984 66 12
1.947516 -1.2760955 0.29954177 24 5
2.9336724 -2.4882336 1.2491162 44 13
1.9766018 -1.3137221 0.37742919 28 6
2.9392459 -2.4972141 1.3921559 47 14
1.9449582 -1.2761194 0.46003398 100 7
2.934134 -2.4930658 1.5337234 41 15
1.3875002 -0.59597135 0.1221242 7 0
1.5211358 -0.76189804 0.12523153 5 1
2.3075323 -1.7345076 0.6506229 21 9
1.7122303 -0.9991188 0.12525111 5 2
2.9819188 -2.571485 0.84548533 55 10
1.8976682 -1.2302948 0.14770955 6 3
2.9692659 -2.5580101 0.98260266 47 11
1.8665305 -1.192955 0.23286238 9 4
3.0188367 -2.6227438 1.1354369 71 12
1.9394474 -1.2852011 0.29936749 24 5
2.9382291 -2.5249701 1.2552221 44 13
1.9724157 -1.3273935 0.37701049 17 6
2.9313793 -2.5186281 1.3948553 43 14
1.9331307 -1.280545 0.46010381 100 7
2.9971459 -2.6036043 1.5673697 60 15
1.3916068 -0.61250925 0.11798307 8 0
1.9640955 -1.3274896 0.54087353 32 8
1.5244809 -0.77921879 0.12163234 6 1
2.2920637 -1.7392633 0.65030891 19 9
1.6896472 -0.98704875 0.12983054 6 2
2.9613628 -2.5777833 0.84478807 66 10
1.8580556 -1.198773 0.15553126 7 3
2.9544592 -2.5724475 0.98284638 40 11
1.9047192 -1.2590314 0.2236003 17 4
2.9943721 -2.6246462 1.1332469 69 12
1.9366068 -1.3002504 0.29849595 29 5
3.2552934 -2.9552054 1.3590221 52 13
2.0686488 -1.4678282 0.36811337 62 6
3.2422276 -2.9412842 1.5158789 46 14
1.9315759 -1.2971607 0.45989436 100 7
3.0151005 -2.6585186 1.5818636 61 15
1.3809686 -0.61110711 0.12005362 8 0
1.9507805 -1.3304292 0.5407688 29 8
1.5201894 -0.78762043 0.12073252 6 1
2.2881474 -1.7576988 0.6509369 18 9
1.6821055 -0.99305093 0.12983054 5 2
3.1343534 -2.8296919 0.87145776 32 10
1.8479171 -1.2043111 0.15584415 8 3
3.0878439 -2.7732534 1.0123388 11 11
1.8564103 -1.2162813 0.23139995 45 4
2.976753 -2.6361132 1.1329339 68 12
1.9049388 -1.2795994 0.30163354 69 5
3.2304718 -2.9598598 1.3567324 42 13
2.1130984 -1.5447369 0.36350781 87 6
3.2259815 -2.9566495 1.5163288 39 14
2.0966659 -1.5260878 0.4549728 114 7
2.9961374 -2.6686087 1.5808283 58 15
1.3703696 -0.60962462 0.1221242 8 0
1.9646201 -1.3678993 0.54143202 42 8
1.5156116 -0.79618907 0.11983272 7 1
2.2808321 -1.7736299 0.65135562 18 9
1.6921648 -1.022612 0.12410626 6 2
2.8847899 -2.5469072 0.8385129 45 10
1.84111 -1.2146912 0.15521842 39 3
2.8976972 -2.5667048 0.97797161 42 11
1.8434372 -1.2189029 0.23213115 38 4
2.9590824 -2.6474819 1.132621 66 12
1.9872464 -1.4049588 0.28856015 9 5
3.2056735 -2.9668438 1.3548243 49 13
3.2144299 -2.9805679 1.5190283 42 14
2.0881383 -1.5378516 0.45490298 112 7
2.9860804 -2.6912124 1.5839342 52 15
1.3645477 -0.6141665 0.1221242 8 0
1.5016477 -0.79224777 0.12253213 6 1
2.2664566 -1.7797654 0.65114629 19 9
1.6829737 -1.0272812 0.12448788 6 2
2.8797817 -2.5735304 0.84008169 48 10
1.8333225 -1.2232522 0.15490553 15 3
2.8767493 -2.5729363 0.97699666 51 11
1.8307761 -1.2212024 0.23286238 96 4
2.9522331 -2.6728182 1.135124 73 12
1.9321911 -1.3543763 0.2950097 50 5
3.0483108 -2.8006995 1.3105567 22 13
1.8654872 -1.2692851 0.3828721 11 6
3.191407 -2.9885614 1.5172287 45 14
2.087214 -1.5588088 0.45462376 114 7
3.0165071 -2.7653921 1.6046398 15 15
1.3657601 -0.62787271 0.11901835 8 0
2.1641006 -1.6686978 0.54771489 69 8
1.4832339 -0.78183842 0.12703115 6 1
2.2399154 -1.7699611 0.64989018 20 9
1.6666023 -1.0225456 0.12715921 6 2
2.8745599 -2.6001842 0.84165049 54 10
1.8197798 -1.2237051 0.15615699 18 3
2.8623714 -2.586503 0.97724038 47 11
1.8229516 -1.229723 0.23261866 97 4
2.9367862 -2.6871839 1.1354369 71 12
1.9590827 -1.4090914 0.28978035 44 5
3.0399148 -2.824475 1.3132279 24 13
1.8646883 -1.2875233 0.38213941 14 6
3.168375 -2.9964094 1.5154291 43 14
2.0719218 -1.560456 0.45476335 117 7
2.9589455 -2.7243235 1.5865225 30 15
1.3600402 -0.6322403 0.11901835 8 0
2.1651955 -1.6930189 0.54806393 79 8
1.4885156 -0.80232072 0.12253213 6 1
1.9471759 -1.4079663 0.62550163 32 9
1.6553229 -1.0237373 0.12830406 6 2
2.8612452 -2.615339 0.84199917 48 10
1.8241608 -1.247682 0.15271544 7 3
2.8515129 -2.6047502 0.97821534 50 11
1.8213679 -1.2458942 0.2311562 100 4
2.9063208 -2.6805727 1.1316824 68 12
1.985456 -1.464125 0.28455102 44 5
3.0337121 -2.851383 1.3166625 39 13
2.0470481 -1.547792 0.36549658 40 6
3.1506443 -3.0098705 1.5154291 45 14
2.0530388 -1.5572143 0.4550077 109 7
2.9332843 -2.7243912 1.5823812 51 15
1.3542986 -0.6365788 0.11901835 8 0
2.152873 -1.6998203 0.54802901 83 8
1.4887034 -0.81682909 0.11983272 6 1
2.1796811 -1.7379386 0.64664537 28 9
1.6546651 -1.0389878 0.12601435 6 2
2.8406649 -2.6208749 0.84130192 46 10
1.8055141 -1.2419455 0.15521842 23 3
2.8483171 -2.6344955 0.98089647 46 11
2.0290849 -1.5417404 0.18679574 40 4
2.8937435 -2.6974552 1.132621 69 12
1.895188 -1.3649859 0.2962299 55 5
3.005547 -2.8504534 1.3132279 36 13
2.0605803 -1.5875897 0.36340314 69 6
3.1351783 -3.0263629 1.5163288 42 14
2.0458355 -1.5701246 0.45490298 114 7
2.9082797 -2.7262514 1.5787579 52 15
1.3414199 -0.63173425 0.1221242 7 0
2.1019688 -1.6554804 0.54687715 126 8
1.479471 -0.81885898 0.12073252 5 1
2.2155623 -1.8108485 0.65083224 28 9
1.6395711 -1.0355532 0.12830406 6 2
2.8290401 -2.6394885 0.84199917 49 10
1.7834357 -1.2313015 0.15865993 11 3
2.8366003 -2.6531281 0.98187143 46 11
2.8793204 -2.71312 1.1332469 69 12
1.89844 -1.3898832 0.29431245 19 5
2.9903054 -2.866683 1.3139913 40 13
2.0496283 -1.595732 0.36340314 99 6
3.1213114 -3.0463808 1.5181284 42 14
2.0373516 -1.5814073 0.45483318 118 7
2.8913541 -2.7388167 1.5787579 51 15
1.3423498 -0.64546251 0.11901835 8 0
2.0871072 -1.6590049 0.54677248 117 8
1.4702449 -0.82082832 0.12163234 6 1
2.203439 -1.8197997 0.65083224 28 9
1.6350006 -1.0462471 0.12715921 6 2
2.8172848 -2.6580653 0.84269637 51 10
1.8012182 -1.2746376 0.15146396 6 3
2.8106706 -2.6525104 0.97992152 46 11
1.7835307 -1.2517968 0.23334983 9 4
2.8659651 -2.7303152 1.1341854 71 12
2.9668472 -2.8717539 1.3120831 18 13
2.0268435 -1.5876961 0.36444986 110 6
3.0981066 -3.0537643 1.5163288 43 14
2.0311508 -1.5958872 0.45469356 112 7
2.880059 -2.7590938 1.5813459 45 15
1.3340677 -0.64673281 0.12005362 7 0
2.0781331 -1.6705201 0.54684228 124 8
1.4610248 -0.82273722 0.12253213 6 1
2.1865747 -1.8222227 0.65041351 25 9
1.6245822 -1.0489911 0.12792245 6 2
2.8100796 -2.6830554 0.84409088 49 10
1.8440952 -1.353387 0.13738486 7 3
2.7976277 -2.6693876 0.98065275 47 11
1.7743405 -1.2584932 0.23334983 11 4
2.8455429 -2.7378595 1.1332469 66 12
2.0339546 -1.6190751 0.27112901 126 5
2.9595172 -2.8989387 1.3155177 49 13
2.015892 -1.5956616 0.36444986 115 6
3.0771801 -3.0641613 1.5154291 42 14
2.0142999 -1.5957711 0.45486808 109 7
2.8652246 -2.7746429 1.5823812 42 15
1.328052 -0.65108407 0.12005362 7 0
2.0725842 -1.6868711 0.5470168 125 8
1.4563602 -0.83091605 0.12163234 6 1
2.1732273 -1.8293996 0.65030891 28 9
1.613021 -1.050074 0.1290673 6 2
2.7933817 -2.695107 0.84409088 46 10
1.8435827 -1.3732408 0.13488191 7 3
2.7890983 -2.6926672 0.98235893 43 11
2.8251054 -2.7452793 1.1323082 71 12
2.0123997 -1.6124973 0.27269784 115 5
2.9508278 -2.9245424 1.3185706 78 13
2.0118706 -1.6133165 0.3638218 115 6
3.0562155 -3.0744364 1.5145292 40 14
1.9998178 -1.5987902 0.4549728 117 7
2.8457997 -2.7838385 1.5813459 31 15
1.317534 -0.64910758 0.1221242 8 0
2.0518408 -1.6820381 0.54673755 125 8
1.4538939 -0.84225917 0.11983272 6 1
2.1714177 -1.8527827 0.65125096 29 9
1.6071632 -1.0590817 0.12830406 6 2
2.7743142 -2.7038221 0.84374225 48 10
1.8406132 -1.3899171 0.1330047 7 3
2.7780914 -2.7127054 0.98357761 42 11
2.009553 -1.6296523 0.17948359 122 4
2.8057971 -2.7541852 1.1316824 68 12
2.0001669 -1.6187611 0.27287215 118 5
2.9181185 -2.9164953 1.3136096 73 13
2.0053988 -1.6277256 0.36340314 112 6
3.0419662 -3.0941355 1.5163288 42 14
1.9899621 -1.6082475 0.45493788 105 7
2.9066019 -2.9065239 1.6175808 53 15
1.3070596 -0.64705253 0.12419474 8 0
2.0334916 -1.6803198 0.5465281 125 8
1.4448464 -0.84388161 0.12073252 6 1
2.1590757 -1.8615017 0.65125096 25 9
1.5989846 -1.0648575 0.12830406 5 2
2.7666659 -2.7287319 0.84513676 48 10
1.8151448 -1.3740408 0.13738486 7 3
2.7692168 -2.7359667 0.98528373 40 11
1.9995209 -1.639153 0.17923984 128 4
2.7909944 -2.7694495 1.1323082 63 12
1.9905666 -1.6279593 0.27269784 121 5
2.8878129 -2.911417 1.3094118 63 13
1.9896576 -1.6290326 0.3638218 112 6
3.0253458 -3.11059 1.5172287 42 14
1.9815637 -1.6190395 0.45486808 109 7
2.8162885 -2.8141539 1.5834166 27 15
1.3076628 -0.66077721 0.12108889 8 0
2.0083528 -1.6686194 0.54610926 111 8
1.4344597 -0.84401023 0.12208223 7 1
2.1505213 -1.874789 0.65156496 31 9
1.5977712 -1.080074 0.12601435 6 2
2.752002 -2.7438288 0.84548533 48 10
1.8053142 -1.3809012 0.13738486 7 3
2.7471511 -2.7392557 0.98406506 41 11
1.9852809 -1.6418211 0.17997107 127 4
2.7794695 -2.7895184 1.1338725 69 12
1.9782697 -1.6340966 0.27287215 118 5
2.851516 -2.8960195 1.3029243 54 13
1.9743156 -1.6299763 0.36424053 107 6
3.0048213 -3.1201203 1.5163288 43 14
1.9749973 -1.633347 0.45472845 105 7
2.7967069 -2.8230579 1.5823812 51 15
1.3061585 -0.67121542 0.11901835 8 0
2.0109591 -1.6959953 0.5465281 116 8
1.4285136 -0.85049045 0.12163234 6 1
2.1324081 -1.875169 0.65104157 39 9
1.5917063 -1.0890363 0.12525111 6 2
2.7434499 -2.7666824 0.84670556 43 10
1.8043898 -1.4007401 0.13488191 7 3
2.734652 -2.757525 0.98504007 42 11
1.9706781 -1.6446576 0.1807023 129 4
2.7661417 -2.8059013 1.1348112 68 12
1.972705 -1.6500261 0.27200058 115 5
2.8170643 -2.8839874 1.2972 57 13
1.965399 -1.6409628 0.3640312 110 6
2.9792297 -3.1235359 1.5136294 42 14
1.9649357 -1.6426919 0.45469356 112 7
2.7803659 -2.836633 1.5828989 50 15
1.3000152 -0.67542028 0.11901835 8 0
1.9971907 -1.7005696 0.5464583 116 8
1.4192383 -0.85211062 0.12253213 6 1
2.1199498 -1.8836834 0.65104157 42 9
1.5789583 -1.0882349 0.12677759 6 2
2.730792 -2.7849772 0.84740281 45 10
1.7955291 -1.4091785 0.13456902 6 3
2.7220221 -2.7757521 0.98601496 41 11
1.9583142 -1.6506855 0.18094605 129 4
2.7421513 -2.8079104 1.1329339 71 12
1.9681312 -1.6676054 0.27095473 123 5
2.7993135 -2.8960726 1.2972 51 13
1.9608858 -1.6585305 0.36340314 110 6
2.9624069 -3.1396954 1.5145292 42 14
1.9469768 -1.6403925 0.45490298 112 7
2.7650278 -2.851728 1.5839342 47 15
1.2916925 -0.67638755 0.12005362 8 0
1.9834156 -1.7050605 0.54638851 119 8
1.4186693 -0.86660886 0.11983272 6 1
2.1119022 -1.8987637 0.65146029 50 9
1.5673434 -1.0889734 0.12792245 6 2
2.712451 -2.7949584 0.84722847 48 10
1.7866154 -1.417576 0.13425618 7 3
2.7114742 -2.7972331 0.98747742 46 11
1.9481391 -1.6599405 0.1807023 124 4
2.7204008 -2.8130417 1.1316824 65 12
1.943458 -1.6553974 0.27304643 116 5
2.7804089 -2.9064343 1.2968184 60 13
1.9495637 -1.6661503 0.36340314 110 6
2.9498169 -3.1622574 1.5172287 43 14
1.9335274 -1.6446149 0.4549728 102 7
2.7334943 -2.8426604 1.5772049 42 15
1.2791008 -0.67086697 0.12315944 8 0
1.956345 -1.689487 0.54589981 101 8
1.4028716 -0.85841656 0.12343195 6 1
2.101531 -1.9104981 0.65166962 50 9
1.5611814 -1.0978111 0.12715921 6 2
2.7017806 -2.816457 0.84827435 48 10
1.7656374 -1.4078251 0.13738486 7 3
2.6963744 -2.8120761 0.98796487 41 11
1.9455842 -1.6807301 0.17875239 128 4
2.7073879 -2.8312087 1.1329339 63 12
1.9321525 -1.6629257 0.27304643 115 5
2.7571232 -2.9101419 1.2949104 57 13
1.9382021 -1.6737103 0.36340314 112 6
2.930608 -3.175034 1.5172287 42 14
1.9322014 -1.6671059 0.45465866 102 7
2.4912777 -2.5142035 1.4679832 15 15
1.2814537 -0.68784153 0.11901835 8 0
1.9415646 -1.6920702 0.54579508 97 8
1.3938435 -0.85971212 0.12433174 6 1
2.0910809 -1.922189 0.65187895 46 9
1.5528008 -1.1033455 0.12715921 6 2
2.6909449 -2.8379338 0.84932023 52 10
1.7570484 -1.4158583 0.137072 6 3
2.6768253 -2.8202105 0.98747742 41 11
1.9287055 -1.6799672 0.17997107 129 4
2.6942458 -2.8493302 1.1341854 65 12
1.9310104 -1.685148 0.27147764 122 5
2.4694111 -2.5095754 1.1991242 43 13
1.9246142 -1.6778679 0.36361247 110 6
2.4730053 -2.5173659 1.3323189 54 14
1.9244969 -1.6793487 0.45455393 112 7
2.469656 -2.5145404 1.4648774 42 15
1.2794365 -0.69839466 0.1169478 8 0
1.9376969 -1.7113235 0.54603946 101 8
1.3867121 -0.86437356 0.12433174 7 1
2.07336 -1.9218366 0.65135562 47 9
1.5403949 -1.1020675 0.12868568 5 2
2.6766915 -2.8543739 0.84984314 47 10
1.7523748 -1.4307003 0.13550764 7 3
2.6632321 -2.8361826 0.98820865 38 11
1.9154941 -1.6838393 0.18045855 127 4
2.6766784 -2.8607733 1.1341854 68 12
1.9163013 -1.6875932 0.27200058 115 5
2.4765534 -2.5541167 1.2071382 30 13
1.9124879 -1.6833739 0.36371714 100 6
2.5878687 -2.7285888 1.3876569 29 14
1.9108955 -1.6834183 0.45462376 102 7
2.6697741 -2.8590996 1.5715109 73 15
1.2629102 -0.68607676 0.1221242 8 0
1.9210787 -1.7101619 0.54586494 95 8
1.387983 -0.88211393 0.12073252 6 1
2.0595787 -1.9283614 0.65125096 50 9
1.5224466 -1.0926241 0.13212025 6 2
2.6682942 -2.8787625 0.85123765 48 10
1.7401161 -1.4339054 0.13613337 7 3
2.6575186 -2.8658471 0.99088979 45 11
1.9040402 -1.691221 0.18045855 126 4
2.6511171 -2.8584397 1.1316824 63 12
1.9134198 -1.7084041 0.2706061 123 5
2.6700256 -2.8918693 1.2826986 60 13
1.9042645 -1.6957874 0.36340314 102 6
2.6580555 -2.8757546 1.4249988 52 14
1.8951378 -1.6840348 0.45476335 95 7
2.6594338 -2.8818114 1.5751344 37 15
1.2587628 -0.69331551 0.12108889 8 0
1.9073416 -1.7141972 0.54579508 97 8
1.3786447 -0.88345432 0.12163234 6 1
2.0521951 -1.9449246 0.65177429 51 9
1.5204054 -1.1079016 0.12983054 6 2
2.6452365 -2.8816569 0.85036606 39 10
1.7299732 -1.4403722 0.13613337 7 3
2.6473029 -2.8888354 0.99259591 56 11
1.894672 -1.7018964 0.17997107 127 4
2.6356165 -2.8729949 1.1323082 63 12
1.8869241 -1.6922023 0.27304643 112 5
2.6501372 -2.8998661 1.2819352 66 13
1.8927484 -1.70311 0.36340314 102 6
2.6382685 -2.8837132 1.424099 60 14
1.881548 -1.6879282 0.45483318 100 7
2.6355102 -2.8832698 1.5720285 53 15
1.2525041 -0.69727194 0.12108889 7 0
1.8914734 -1.7147627 0.54565549 95 8
1.3713887 -0.88803589 0.12163234 6 1
2.0478652 -1.966552 0.65261167 51 9
1.5192754 -1.1248643 0.12715921 6 2
1.7197965 -1.4467857 0.13613337 7 3
2.6400671 -2.9168556 0.99503332 64 11
1.8894445 -1.7192638 0.17850867 121 4
2.6294541 -2.9025502 1.1357498 42 12
1.8849345 -1.7146375 0.27147764 122 5
2.8456409 -3.2523527 1.360167 56 13
1.8833104 -1.7137597 0.36319381 102 6
2.868295 -3.2915359 1.5320754 74 14
1.8774847 -1.7070067 0.45458883 102 7
2.8601179 -3.2828522 1.6947087 70 15
1.2523415 -0.71104157 0.11798307 7 0
1.8756384 -1.7152228 0.54551589 84 8
1.3599989 -0.88595617 0.12343195 6 1
2.0275602 -1.9627419 0.65187895 46 9
1.5107539 -1.1301788 0.12715921 6 2
2.2664862 -2.3501616 0.79336619 5 10
1.7054262 -1.4464279 0.13738486 7 3
2.8603792 -3.3128428 1.0506058 89 11
1.8757161 -1.7231324 0.17899612 121 4
2.8547769 -3.3067608 1.208961 52 12
1.8701771 -1.7167745 0.27200058 107 5
2.8548551 -3.3113477 1.3708522 68 13
1.8675025 -1.714175 0.36361247 105 6
2.8565998 -3.3171499 1.5356746 74 14
1.8617105 -1.7073815 0.45472845 91 7
2.8463631 -3.3050241 1.6978146 77 15
1.2459903 -0.71496415 0.11798307 7 0
1.8702966 -1.7326207 0.54572529 83 8
1.350693 -0.88711762 0.12433174 6 1
2.0156879 -1.972409 0.65198362 47 9
1.5001526 -1.1321006 0.12792245 6 2
2.2442539 -2.3474786 0.79214609 12 10
1.6952182 -1.4527129 0.13738486 7 3
2.8372743 -3.3200693 1.0498745 93 11
1.8619856 -1.726918 0.17948359 119 4
2.8420243 -3.3308358 1.2111511 80 12
1.8647832 -1.7341192 0.27095473 117 5
2.8389595 -3.3303273 1.3723788 86 13
1.8548499 -1.7196004 0.36371714 91 6
2.8325212 -3.322783 1.533875 79 14
1.8584617 -1.7281399 0.45444921 87 7
2.8304286 -3.3238559 1.6998851 77 15
1.2436271 -0.72545981 0.11591253 7 0
1.8637737 -1.7483139 0.54589981 90 8
1.3454385 -0.8948859 0.12343195 6 1
2.0016868 -1.9786036 0.65187895 50 9
1.4885424 -1.1322773 0.1290673 6 2
2.2313843 -2.3599815 0.79249465 15 10
1.695202 -1.4758464 0.13425618 7 3
2.7977252 -3.2999794 1.0452435 46 11
1.8482533 -1.7306211 0.17997107 113 4
2.8229558 -3.3447371 1.211464 91 12
1.8540965 -1.7429407 0.27078038 106 5
2.8219149 -3.3475645 1.3735236 100 13
1.8493993 -1.7369249 0.36308914 94 6
2.8094544 -3.3299365 1.5325253 100 14
1.8426486 -1.7283711 0.45458883 85 7
2.8123693 -3.3393149 1.7009205 100 15
1.227477 -0.71264172 0.12108889 7 0
1.8544334 -1.7586179 0.54596967 90 8
1.3403709 -0.90249038 0.12253213 6 1
1.9932275 -1.9930258 0.65229762 50 9
1.478251 -1.1338909 0.12983054 6 2
2.2107472 -2.3584502 0.79144883 18 10
1.6750473 -1.4649168 0.13738486 7 3
2.7682772 -3.2945223 1.0428061 48 11
1.8389821 -1.7408249 0.17948359 113 4
2.7984014 -3.3479655 1.2098997 100 12
1.8396634 -1.7446332 0.27130336 117 5
2.8034177 -3.3609536 1.3739053 100 13
1.8401061 -1.7471571 0.36287978 96 6
2.7960267 -3.35162 1.5352248 59 14
1.8272591 -1.7282662 0.45472845 87 7
1.2152069 -0.70646334 0.12419474 7 0
1.8344331 -1.7519159 0.54569042 88 8
1.3350018 -0.9102248 0.12163234 6 1
1.9872744 -2.0128412 0.65303034 54 9
1.4736812 -1.1457493 0.12830406 6 2
2.1977851 -2.3707986 0.7917974 17 10
1.6526835 -1.4506348 0.1411393 7 3
2.7413104 -3.2943821 1.0410999 30 11
1.8353055 -1.7614799 0.17753369 119 4
2.7300274 -3.278291 1.1948819 40 12
1.8228314 -1.7430356 0.27217489 102 5
1.8252795 -1.7489805 0.36319381 91 6
1.8216599 -1.7455251 0.45451903 87 7
2.6855259 -3.2147331 1.6548507 7 15
1.2166913 -0.72352695 0.12005362 7 0
1.8276758 -1.7675004 0.54586494 94 8
1.321702 -0.90448546 0.12433174 7 1
1.9690557 -2.0119743 0.65250701 56 9
1.4719867 -1.1626892 0.12563273 5 2
2.1827307 -2.3796487 0.7917974 22 10
1.6544067 -1.4771142 0.13738486 7 3
2.6823878 -3.2392025 1.031594 8 11
1.8234462 -1.7684405 0.17753369 117 4
1.8170878 -1.7602601 0.27112901 106 5
2.6363773 -3.1677175 1.3250582 6 13
1.8094659 -1.7489851 0.36361247 91 6
2.6222529 -3.146395 1.4740381 7 14
1.8159158 -1.7627864 0.45430961 87 7
2.5912881 -3.0975232 1.6149925 7 15
1.214146 -0.73395085 0.11798307 7 0
1.8097773 -1.7640357 0.54565549 83 8
1.3143367 -0.90876877 0.12433174 5 1
1.9498878 -2.0092559 0.65187895 56 9
1.457376 -1.1575553 0.12792245 5 2
2.1646414 -2.3832438 0.79127449 23 10
1.646013 -1.4865534 0.13675913 7 3
2.57254 -3.0940895 1.009414 5 11
1.8056023 -1.7650199 0.17899612 115 4
2.5236726 -3.0121775 1.1420071 16 12
1.8082173 -1.7723055 0.2706061 110 5
2.5495756 -3.0614426 1.2987266 6 13
1.7996644 -1.7592728 0.36340314 89 6
2.539989 -3.0476491 1.4447944 8 14
1.803054 -1.7679114 0.45434451 81 7
2.5175815 -3.0129364 1.5854871 7 15
1.2095931 -0.74102724 0.1169478 8 0
1.805843 -1.7847517 0.54593474 86 8
1.3052628 -0.9094882 0.12523153 6 1
1.9357389 -2.0150781 0.65177429 51 9
1.4418728 -1.1506093 0.13059378 6 2
2.1495223 -2.3919201 0.79127449 23 10
1.6379002 -1.4957607 0.13613337 7 3
2.4923978 -2.9958797 0.99405837 9 11
1.7956895 -1.7752745 0.17850867 113 4
2.4857111 -2.9883914 1.1357498 9 12
1.7966993 -1.778898 0.2706061 110 5
2.4684324 -2.9608467 1.2739213 6 13
1.793738 -1.7764654 0.36277509 94 6
2.4559307 -2.9430609 1.414201 9 14
1.7895834 -1.7710001 0.45441431 83 7
2.4377885 -2.9138985 1.5518407 10 15
1.1995009 -0.73787546 0.11901835 8 0
1.7962289 -1.7948141 0.54600453 83 8
1.3038671 -0.92372751 0.12253213 5 1
1.928879 -2.0327504 0.65240234 57 9
1.4354351 -1.1587753 0.12983054 6 2
2.1348639 -2.4002318 0.79127449 25 10
1.631663 -1.5083785 0.13488191 7 3
2.4240203 -2.9159799 0.98138392 11 11
1.7861042 -1.785264 0.17802116 113 4
2.4070125 -2.8899329 1.116039 18 12
1.7792886 -1.7750118 0.27165195 99 5
2.4162591 -2.9091539 1.2601831 44 13
1.7841551 -1.7864673 0.36256576 93 6
2.4069982 -2.8968406 1.3993542 55 14
1.7761152 -1.7740102 0.45448413 85 7
2.3987465 -2.8849108 1.539935 53 15
1.1875751 -0.73128009 0.1221242 8 0
1.780699 -1.7943606 0.54586494 86 8
1.2982998 -0.93132091 0.12163234 5 1
1.9199317 -2.0469277 0.652821 48 9
1.4289386 -1.1669188 0.1290673 6 2
2.119194 -2.406729 0.79110014 21 10
1.6115247 -1.4970162 0.13801059 7 3
2.3964567 -2.9086597 0.97894657 53 11
1.7783802 -1.7986832 0.17704621 113 4
2.3921154 -2.9050517 1.1169777 55 12
1.7702618 -1.7869043 0.27112901 95 5
2.3926644 -2.9088423 1.2578933 55 13
1.7741036 -1.7966528 0.36235642 91 6
2.3929663 -2.9135959 1.4011538 68 14
1.7700078 -1.7911544 0.45427468 83 7
2.3875513 -2.9066348 1.5435584 61 15
1.1827688 -0.73836553 0.12108889 8 0
1.7682662 -1.8012564 0.54586494 83 8
1.2849041 -0.92537701 0.12433174 6 1
1.9061306 -2.0545728 0.652821 37 9
1.4217989 -1.1753606 0.12830406 6 2
2.1034436 -2.415447 0.79110014 21 10
1.5997524 -1.5012693 0.13832349 7 3
2.375119 -2.9136512 0.97821534 62 11
1.764969 -1.8038263 0.17728993 106 4
2.3765144 -2.920435 1.1179162 58 12
1.7617021 -1.8007309 0.27043179 102 5
2.3751373 -2.920754 1.258275 56 13
1.7559023 -1.7930024 0.36298448 87 6
2.3782132 -2.9306254 1.4029536 76 14
1.7595129 -1.8015008 0.45420489 85 7
2.3718734 -2.9218819 1.5451113 57 15
1.1816001 -0.7522223 0.11798307 8 0
1.7596198 -1.8151107 0.54600453 86 8
1.2811543 -0.93631482 0.12253213 7 1
1.9466453 -2.1621723 0.65878731 13 9
1.4145954 -1.1837738 0.1275408 6 2
2.0952513 -2.4380877 0.79249465 21 10
1.5920857 -1.5122087 0.13738486 7 3
2.359113 -2.9269125 0.97870278 62 11
1.7487016 -1.8036561 0.17826492 109 4
2.361403 -2.9354236 1.1188548 64 12
1.7515358 -1.8108094 0.27008316 95 5
2.3618736 -2.9391577 1.2601831 57 13
1.7467299 -1.8048167 0.36267042 83 6
2.3555899 -2.9318416 1.400704 78 14
1.7493467 -1.8115826 0.45413509 85 7
2.3557677 -2.9350355 1.5461466 57 15
1.1715934 -0.74885023 0.12005362 8 0
1.7469392 -1.8196957 0.54596967 73 8
1.2683401 -0.92995059 0.12523153 6 1
2.0748613 -2.4334149 0.67448807 18 9
1.3939927 -1.1658926 0.13250184 6 2
2.0803599 -2.4461246 0.79249465 16 10
1.5800201 -1.5142288 0.13801059 7 3
2.3473709 -2.9467762 0.98016524 60 11
1.7389003 -1.8134465 0.17777744 109 4
2.343991 -2.9448006 1.1188548 72 12
1.7445236 -1.8258984 0.26921159 99 5
2.3490722 -2.9571934 1.2620912 63 13
1.7378724 -1.8163822 0.36235642 89 6
2.3391142 -2.9429083 1.4011538 78 14
1.7300956 -1.8037648 0.45441431 85 7
2.3401768 -2.947793 1.5471818 58 15
1.1580131 -0.73858511 0.12419474 8 0
1.7361202 -1.8277431 0.54600453 77 8
1.2718031 -0.95461106 0.11983272 6 1
2.0628014 -2.4466414 0.67480212 12 9
1.3910668 -1.1808038 0.13021216 5 2
2.0542336 -2.4329596 0.79040295 13 10
1.5750049 -1.5303307 0.13613337 7 3
2.3385839 -2.9739468 0.98260266 62 11
1.7308881 -1.8267066 0.17680246 112 4
2.3293021 -2.9593287 1.1197934 73 12
1.7258127 -1.8200512 0.27043179 102 5
2.3318622 -2.9685636 1.2624729 49 13
1.7326591 -1.8349819 0.3616237 80 6
2.3271213 -2.9625137 1.4038533 71 14
1.7236123 -1.820787 0.45420489 81 7
2.3202977 -2.9539628 1.5461466 58 15
1.1533136 -0.74543512 0.12315944 8 0
1.7192723 -1.8253284 0.54583001 79 8
1.2605586 -0.95172739 0.12163234 5 1
2.0492041 -2.4583225 0.67501146 11 9
1.3849856 -1.1906644 0.1290673 5 2
2.0434737 -2.4498837 0.79127449 12 10
1.5570377 -1.5219269 0.13863632 7 3
2.3166919 -2.9764881 0.9816277 62 11
1.7260411 -1.8471956 0.17485255 112 4
2.3129926 -2.9723616 1.1204191 69 12
1.7136484 -1.826438 0.27043179 95 5
2.3091369 -2.9694037 1.2605648 46 13
1.7185698 -1.8378618 0.36183307 75 6
2.3161705 -2.9858594 1.4074526 69 14
1.7132905 -1.8307097 0.45413509 87 7
2.3048635 -2.9685876 1.5476996 58 15
1.1521143 -0.75913131 0.12005362 7 0
1.7089188 -1.8352323 0.54589981 81 8
1.2451406 -0.9399817 0.12568146 7 1
2.3024569 -2.9862225 0.70568037 57 9
1.3779237 -1.198763 0.12830406 5 2
2.2950191 -2.9748096 0.84217346 55 10
1.5449777 -1.5237405 0.13926211 7 3
2.2930033 -2.975368 0.98016524 60 11
1.7091851 -1.8447614 0.17607126 113 4
2.3011224 -2.9940979 1.1226093 67 12
1.7073336 -1.8431776 0.2693859 95 5
2.2972369 -2.9910469 1.263236 63 13
1.7044847 -1.8406584 0.3620424 76 6
2.2961106 -2.9918547 1.4065528 78 14
1.7069646 -1.8474913 0.45392564 79 7
2.2916992 -2.9862692 1.5502877 58 15
1.1402359 -0.75220823 0.12315944 8 0
1.7030449 -1.8539946 0.54614419 83 8
1.2446831 -0.95774674 0.12208223 7 1
2.2847886 -2.9953005 0.70568037 61 9
1.3710994 -1.2066823 0.1275408 6 2
2.2849474 -3.0001349 0.84374225 72 10
1.5361614 -1.5327041 0.13863632 7 3
2.280797 -2.9950111 0.9816277 60 11
1.6936985 -1.8437757 0.17704621 101 4
2.2810106 -2.999959 1.1219835 64 12
1.6977576 -1.8547947 0.26886296 92 5
2.2813237 -3.0035994 1.2639992 66 13
1.6926222 -1.8467247 0.3620424 78 6
2.2775314 -2.9991641 1.4061029 78 14
1.6946568 -1.8537786 0.45392564 81 7
2.2734206 -2.9956031 1.5502877 58 15
1.1391139 -0.76577961 0.12005362 7 0
1.693818 -1.8654091 0.54624885 90 8
1.2361627 -0.95988595 0.12253213 5 1
2.265564 -3.0028143 0.70557564 63 9
1.355968 -1.1989467 0.13021216 5 2
2.2654164 -3.0055654 0.84339362 73 10
1.5326071 -1.5522184 0.13613337 7 3
2.2678246 -3.0149279 0.98309016 62 11
1.6831934 -1.8535409 0.17655873 101 4
2.2623863 -3.0071642 1.1216707 60 12
1.683624 -1.8574727 0.26921159 92 5
2.2682381 -3.0234065 1.266289 66 13
1.6856918 -1.8636484 0.36141437 76 6
2.258312 -3.0066807 1.4056529 76 14
1.6751504 -1.8456984 0.45420489 81 7
2.257688 -3.0100226 1.5518407 58 15
1.1273077 -0.75873435 0.12315944 7 0
1.7251067 -1.9593329 0.54795921 56 8
1.2285086 -0.96372056 0.12253213 6 1
2.2463095 -3.0102222 0.70547098 67 9
1.3426898 -1.1946158 0.13212025 5 2
2.2470369 -3.0147612 0.84339362 64 10
1.5218478 -1.5575972 0.13613337 7 3
2.2538097 -3.0330262 0.98430884 61 11
1.6761478 -1.8703737 0.1750963 96 4
2.2448764 -3.0181131 1.1219835 72 12
1.6721485 -1.865423 0.26903731 95 5
2.2480223 -3.029098 1.2655257 64 13
1.6750721 -1.873404 0.36120504 80 6
2.2502992 -3.036798 1.4110518 68 14
1.6699432 -1.8661597 0.45392564 77 7
2.2435658 -3.0278373 1.5544289 37 15
1.1215609 -0.76373529 0.12264183 7 0
1.79338 -2.1308126 0.55117047 58 8
1.2208347 -0.96751475 0.12253213 7 1
2.2331874 -3.0300746 0.70609903 57 9
1.3389947 -1.2095796 0.12983054 5 2
2.2347524 -3.0363815 0.84461379 37 10
1.5058441 -1.5522764 0.13801059 7 3
