# .PCD v0.7 - Point Cloud Data file format
VERSION 0.7
FIELDS x y z intensity ring
SIZE 4 4 4 4 2
TYPE F F F F U
COUNT 1 1 1 1 1
WIDTH 1299
HEIGHT 1
VIEWPOINT 0 0 0 1 0 0 0
POINTS 1299
DATA ascii
0.7891854 3.0647891 0.61516827 22 13
0.58709794 2.2783434 -0.12330353 78 6
0.82528788 3.2003665 0.76303399 79 14
0.59100837 2.2885592 -0.041257489 75 7
0.82414693 3.1890354 0.88257295 64 15
0.36619425 1.4058419 -0.38926387 9 0
0.76315647 2.9277091 0.052810986 56 8
0.42399687 1.6254237 -0.38781562 18 1
0.76274794 2.9198778 0.15815927 61 9
0.49901637 1.9089239 -0.38352609 7 2
0.77400661 2.9587536 0.26756814 33 10
0.59681821 2.2797999 -0.37325269 87 3
0.78076953 2.9782364 0.37803873 25 11
0.59641933 2.273417 -0.28858662 82 4
0.79854816 3.0417244 0.49808741 19 12
0.59991556 2.2834921 -0.20655911 80 5
0.80821776 3.0720069 0.61745793 22 13
0.60207164 2.2868264 -0.12393155 74 6
0.84401846 3.2035391 0.76483357 77 14
0.60054541 2.2778041 -0.041117873 73 7
0.84126377 3.1885593 0.88360828 64 15
0.37156343 1.3964376 -0.38719329 10 0
0.7769323 2.917876 0.052706268 52 8
0.43551165 1.6344796 -0.39051503 13 1
0.78009021 2.9256287 0.15868263 58 9
0.50816607 1.9044768 -0.3831445 7 2
0.78691679 2.9450359 0.26669657 31 10
0.61027813 2.2823687 -0.37419128 91 3
0.79891139 2.9857521 0.37950116 48 11
0.61099952 2.2818744 -0.29004908 85 4
0.81548589 3.0413177 0.49871314 20 12
0.60979754 2.2726226 -0.20586187 85 5
0.82324767 3.0659807 0.61707634 19 13
0.61778402 2.2991805 -0.12476893 76 6
0.86427087 3.2142813 0.7684328 75 14
0.61246514 2.2746279 -0.041117873 71 7
0.85643852 3.1785147 0.88205534 59 15
0.37963924 1.3982677 -0.3882286 8 0
0.79064149 2.9100468 0.052636456 51 8
0.44457638 1.634057 -0.39096493 12 1
0.79906982 2.9349942 0.15941535 53 9
0.51916242 1.9055786 -0.38390771 7 2
0.80495763 2.9525483 0.26774243 30 10
0.61961818 2.2696137 -0.37262696 87 3
0.81819767 2.9949322 0.38120735 47 11
0.62712723 2.2939627 -0.29199898 85 4
0.82982689 3.0333405 0.49808741 23 12
0.62590015 2.284771 -0.20725635 80 5
0.84136486 3.0692017 0.61860281 21 13
0.62875772 2.292062 -0.12455959 76 6
0.88418454 3.2209871 0.77113223 78 14
0.62860608 2.2868156 -0.04139711 72 7
0.87614399 3.1851628 0.88516116 63 15
0.3869549 1.396261 -0.3882286 8 0
0.80586797 2.9058671 0.052636456 55 8
0.44895422 1.6166856 -0.38736573 11 1
0.81389207 2.9288454 0.15931067 56 9
0.53123796 1.9103997 -0.38543418 7 2
0.82254165 2.9559715 0.26843968 30 10
0.63255525 2.270144 -0.37325269 87 3
0.83120096 2.9810464 0.37998864 38 11
0.63806194 2.2868237 -0.29151151 85 4
0.84676236 3.0327587 0.49871314 22 12
0.63839036 2.2833815 -0.20743066 78 5
0.86112821 3.0779886 0.62127411 21 13
0.63751876 2.2771988 -0.12393155 73 6
0.90208769 3.2200665 0.77203202 75 14
0.64273083 2.2911944 -0.041536726 72 7
0.89385265 3.1842518 0.88619649 63 15
0.39531192 1.3979336 -0.38926387 9 0
0.8243379 2.9131529 0.052845888 51 8
0.45847571 1.6180625 -0.38826552 10 1
0.82812572 2.920701 0.15910132 53 9
0.53908938 1.9000374 -0.38390771 7 2
0.84127319 2.9631238 0.26948556 31 10
0.64821345 2.2801015 -0.37544277 89 3
0.85331672 2.9995654 0.38291353 32 11
0.64785218 2.2758145 -0.29053652 78 4
0.8647939 3.0358829 0.49996459 30 12
0.65525508 2.2972515 -0.20899945 75 5
0.87938696 3.0809891 0.62280059 20 13
0.6527248 2.2853522 -0.12455959 75 6
0.91786504 3.2115517 0.77113223 75 14
0.654719 2.2877979 -0.041536726 72 7
0.91476834 3.1943855 0.89033753 63 15
0.40262559 1.3958447 -0.38926387 7 0
0.84290886 2.9203236 0.053055316 58 8
0.46856424 1.6212564 -0.38961524 8 1
0.8439638 2.9182432 0.15920599 50 9
0.54575539 1.8858734 -0.38161799 7 2
0.85566705 2.9548509 0.26913694 31 10
0.6617927 2.2823682 -0.37638137 85 3
0.87951964 3.0312793 0.38754454 23 11
0.66086787 2.2762036 -0.291024 89 4
0.87571687 3.014241 0.49714881 34 12
0.66838896 2.2976151 -0.2093481 75 5
0.90263921 3.100848 0.62776166 23 13
0.66803253 2.2934091 -0.12518762 73 6
0.93575919 3.2104433 0.77203202 71 14
0.66780853 2.2881777 -0.041606538 73 7
0.93256509 3.1932607 0.89137286 61 15
0.40665823 1.3825973 -0.38615805 8 0
0.85931635 2.9197073 0.053125124 55 8
0.47704691 1.6187806 -0.38961524 10 1
0.86262053 2.9252787 0.15983403 57 9
0.55951196 1.896171 -0.38428935 8 2
0.87056321 2.9484193 0.26896262 29 10
0.67373443 2.2788715 -0.37638137 84 3
0.90157419 3.0475714 0.39022568 13 11
0.676157 2.284133 -0.29248646 80 4
0.89148784 3.0096145 0.49714881 34 12
0.67701006 2.2826231 -0.20830221 75 5
0.92612487 3.1205468 0.63272268 22 13
0.68344456 2.3013668 -0.12581564 75 6
0.9569959 3.2204442 0.77563125 72 14
0.67978173 2.2846491 -0.041606538 71 7
0.94927108 3.1883342 0.89137286 61 15
0.41500169 1.38415 -0.38719329 8 0
0.87056869 2.9017608 0.052880794 54 8
0.48439524 1.6125277 -0.38871542 8 1
0.8779245 2.9207222 0.15983403 56 9
0.57226026 1.9026157 -0.38619745 7 2
0.88828629 2.9514518 0.26965985 29 10
0.68565762 2.2753127 -0.37638137 85 3
0.92095786 3.0542126 0.39168811 17 11
0.69269514 2.2957652 -0.29443637 85 4
0.91123086 3.0181425 0.49933887 33 12
0.69241202 2.2904899 -0.2093481 75 5
0.94245178 3.1156547 0.63272268 27 13
0.69548434 2.2977571 -0.12581564 75 6
0.97723478 3.2265797 0.77833068 71 14
0.69521594 2.2925408 -0.041815966 72 7
0.96707445 3.1870172 0.89240813 59 15
0.42562991 1.3930433 -0.39029911 7 0
0.88750476 2.9028997 0.052985508 55 8
0.49255022 1.6100554 -0.38871542 8 1
0.89437693 2.9199042 0.16004337 55 9
0.58163941 1.8977159 -0.3858158 8 2
0.90547943 2.9524751 0.27018279 27 10
0.695427 2.2661476 -0.37544277 80 3
0.93582267 3.0476141 0.39144436 15 11
0.70470655 2.2921066 -0.29443637 85 4
0.93050677 3.0246582 0.50121611 28 12
0.70516801 2.2907646 -0.20969671 73 5
0.95936573 3.1145968 0.63348591 24 13
0.70632786 2.2902672 -0.12560631 74 6
0.99469066 3.2232802 0.77878052 68 14
0.70917088 2.2966352 -0.041955583 72 7
0.98661381 3.1931565 0.89551395 59 15
0.43382317 1.3945605 -0.39133441 7 0
0.90694124 2.9136448 0.053264745 51 8
0.49721637 1.5963784 -0.38601601 8 1
0.90854895 2.9134336 0.15993871 53 9
0.59123653 1.8947479 -0.3858158 7 2
0.92338109 2.9573634 0.27105436 28 10
0.71277809 2.2814538 -0.37857145 80 3
0.94708896 3.0295763 0.3897382 13 11
0.71511334 2.2847214 -0.29394889 85 4
0.94521272 3.0180249 0.50090319 28 12
0.72211611 2.3042769 -0.2112655 82 5
0.98686665 3.1471672 0.64111823 23 13
0.71910775 2.2904737 -0.12581564 73 6
1.0074886 3.2070491 0.77608109 66 14
0.72258437 2.2987397 -0.042060301 73 7
1.0062414 3.1991787 0.89861977 59 15
0.44204268 1.3960302 -0.39236969 7 0
0.92227989 2.9109235 0.053299651 54 8
0.50674683 1.5974679 -0.3869158 8 1
0.9263038 2.9183164 0.16046207 52 9
0.59903657 1.8861176 -0.38467094 7 2
0.94075203 2.9602468 0.27175158 28 10
0.72651112 2.2833376 -0.37951005 68 3
0.96534795 3.0321414 0.39071316 13 11
0.72666633 2.2810731 -0.29394889 87 4
0.95747703 3.0037916 0.49933887 33 12
0.73114187 2.2909741 -0.21039395 73 5
1.028414 3.2205062 0.65714622 32 13
0.7331236 2.2944148 -0.12623434 73 6
1.0266728 3.2111907 0.77833068 67 14
0.73217243 2.2873065 -0.041920681 72 7
1.0253345 3.201226 0.90069032 56 15
0.44697449 1.3863422 -0.39029911 9 0
0.94119442 2.9174731 0.053509079 59 8
0.51989532 1.6096282 -0.39051503 8 1
0.94218731 2.9153259 0.16056673 51 9
0.60950756 1.8848234 -0.38505259 7 2
0.95562464 2.9533854 0.2715773 27 10
0.7421087 2.2907779 -0.38138729 68 3
0.98427057 3.0364878 0.39193183 10 11
0.74472588 2.2961192 -0.29638627 87 4
0.97501999 3.004374 0.50027746 37 12
0.74620718 2.2965884 -0.2112655 82 5
1.0610433 3.2636211 0.66706824 52 13
0.74883336 2.3019404 -0.12686236 74 6
1.0470934 3.2168887 0.78103006 67 14
0.74537706 2.2872443 -0.041990492 75 7
1.0384907 3.1847925 0.8975845 56 15
0.45181713 1.3766409 -0.3882286 8 0
0.95146507 2.8973062 0.053229842 54 8
0.52588099 1.5994792 -0.38871542 8 1
0.96180707 2.9236338 0.16129944 52 9
0.6230514 1.8927952 -0.3873423 7 2
0.97169763 2.9502337 0.27175158 28 10
0.7522375 2.2812328 -0.38044867 63 3
1.0045104 3.0444884 0.39363801 12 11
0.7592265 2.2997284 -0.29736122 85 4
0.99507511 3.0123575 0.50246757 37 12
0.75634438 2.2869754 -0.21074259 73 5
1.0676324 3.2263353 0.66058075 47 13
0.76213306 2.3017797 -0.12707172 73 6
1.0682116 3.2243114 0.78417933 72 14
0.7623806 2.2984939 -0.042269729 72 7
1.0581933 3.1884794 0.90017265 57 15
0.46146792 1.3815852 -0.39029911 7 0
0.97105825 2.9055607 0.053474173 51 8
0.52806622 1.578223 -0.3842164 7 1
0.98153943 2.9318156 0.16203214 58 9
0.63295287 1.8895072 -0.3873423 8 2
0.9871335 2.9451048 0.27175158 33 10
0.76856989 2.2903721 -0.38263875 66 3
1.0191742 3.035423 0.39315054 13 11
0.77252209 2.299485 -0.2978487 82 4
1.0089449 3.0014889 0.50152892 28 12
0.7759347 2.3056433 -0.21283433 75 5
1.0951622 3.2523308 0.66706824 18 13
0.7728985 2.2939725 -0.12686236 75 6
1.08757 3.2260604 0.78597897 41 14
0.7782411 2.3058388 -0.042479157 70 7
1.0822912 3.2048583 0.90638429 37 15
0.46969697 1.3828906 -0.39133441 7 0
0.98703945 2.9043951 0.053543981 47 8
0.5385586 1.5829096 -0.38601601 7 1
0.98993009 2.9079027 0.16098543 42 9
0.64060968 1.8807039 -0.38619745 7 2
1.0078125 2.9570439 0.27332041 27 10
0.78142875 2.2901917 -0.38326448 59 3
1.0338839 3.028347 0.39290681 10 11
0.78158355 2.2880318 -0.29687375 87 4
1.0260409 3.0019512 0.50246757 25 12
0.79146421 2.3129973 -0.2138802 85 5
1.1612113 3.3916242 0.6968345 13 13
0.78708893 2.2975888 -0.12728105 71 6
1.1664389 3.4030166 0.83051926 16 14
0.79120058 2.3056531 -0.042548969 71 7
1.1505681 3.3509934 0.94934833 7 15
0.47819325 1.3840641 -0.39236969 7 0
1.0087671 2.9180865 0.05389303 42 8
0.54811341 1.5837512 -0.3869158 8 1
1.0077568 2.9102285 0.1614041 37 9
0.64659202 1.8661934 -0.38390771 7 2
1.0252385 2.9573741 0.27384335 23 10
0.79729587 2.2972658 -0.3851417 53 3
1.0529811 3.0322688 0.39412549 8 11
0.79615921 2.2914083 -0.2978487 82 4
1.0391508 2.9890745 0.50121611 22 12
0.79963505 2.2975314 -0.21283433 72 5
1.1653956 3.3465624 0.68882048 21 13
0.80173606 2.3009806 -0.12769975 73 6
1.1649961 3.3416588 0.81702226 33 14
0.80194336 2.2977028 -0.042479157 70 7
1.149628 3.2920315 0.93433678 8 15
0.48030987 1.3669605 -0.3882286 8 0
1.0286756 2.9259703 0.054137368 47 8
0.55769181 1.5845363 -0.38781562 8 1
1.0262984 2.9143314 0.16192746 40 9
0.65831214 1.8683373 -0.38505259 7 2
1.0426955 2.9576027 0.27436629 14 10
0.8079989 2.2893341 -0.38451597 49 3
1.0721475 3.036073 0.3953442 10 11
0.81211442 2.2984385 -0.29931113 82 4
1.0547876 2.9835923 0.50121611 22 12
0.81630749 2.3064604 -0.2140545 78 5
1.1881455 3.3552196 0.69187343 56 13
0.81644034 2.3042819 -0.12811844 73 6
1.1818264 3.3336761 0.81657231 75 14
0.81530112 2.2972417 -0.042548969 72 7
1.1558601 3.2550187 0.92553693 10 15
0.4887614 1.368065 -0.38926387 7 0
1.0433077 2.9186614 0.054102462 50 8
0.56860816 1.5889333 -0.38961524 8 1
1.0509685 2.9352434 0.16339287 41 9
0.66940928 1.8685614 -0.3858158 7 2
1.0635473 2.9671063 0.27576074 15 10
0.81997389 2.2850723 -0.38451597 44 3
1.0873607 3.0285487 0.39510044 11 11
0.82547933 2.2978914 -0.29979861 87 4
1.0703943 2.9780288 0.50121611 23 12
0.82230204 2.2852821 -0.2124857 71 5
1.1983806 3.3286338 0.68767565 55 13
0.83120322 2.3074911 -0.12853712 74 6
1.2038909 3.3402755 0.8197217 67 14
0.83274812 2.3079891 -0.04282821 70 7
1.1663281 3.230751 0.92036057 10 15
0.49723637 1.3691189 -0.39029911 7 0
1.0613075 2.9206762 0.054242078 50 8
0.57397836 1.5787096 -0.38781562 7 1
1.0663234 2.9296999 0.16339287 41 9
0.68455756 1.8797888 -0.38886875 8 2
1.0817958 2.9689853 0.27645802 18 10
0.83423591 2.2883162 -0.38576743 37 3
1.1025218 3.0209494 0.39485672 17 11
0.83886194 2.297267 -0.30028611 85 4
1.0927533 2.9909372 0.50434476 16 12
0.84753865 2.3185167 -0.21597193 89 5
1.2171444 3.326 0.68843889 55 13
0.83915281 2.2918546 -0.12790908 73 6
1.2240443 3.3412459 0.82152128 69 14
0.84717226 2.3112545 -0.042967826 70 7
1.1780082 3.2121103 0.91673708 11 15
0.50439775 1.3664968 -0.39029911 9 0
1.0779703 2.9188313 0.05431189 46 8
0.58088672 1.5720264 -0.3869158 7 1
1.0804461 2.9223917 0.16328819 42 9
0.6872524 1.8578867 -0.38505259 8 2
1.1042458 2.9819641 0.27820113 23 10
0.84757781 2.2876215 -0.38639316 24 3
1.1184884 3.0171912 0.39510044 13 11
0.84909832 2.2892692 -0.29979861 85 4
1.1104605 2.9907303 0.50528342 16 12
0.85411632 2.2991056 -0.21457744 72 5
1.2421687 3.341881 0.69301832 58 13
0.85631204 2.3025537 -0.12874646 74 6
1.2422999 3.3386602 0.82242107 67 14
0.86205363 2.3142829 -0.043107443 70 7
1.2042563 3.2312415 0.92398405 13 15
0.5126642 1.3675441 -0.39133441 9 0
1.099753 2.9320607 0.054660939 48 8
0.59595942 1.5872074 -0.39141485 7 1
1.101351 2.9316521 0.16412558 45 9
0.69973499 1.8616132 -0.38657904 7 2
1.1228304 2.9856615 0.27907267 28 10
0.86372155 2.2942443 -0.38827038 24 3
1.144766 3.0391593 0.3987565 11 11
0.86527288 2.2959375 -0.30126104 87 4
1.1269782 2.9887679 0.50590914 20 12
0.87528884 2.3188343 -0.21684349 82 5
1.2631199 3.3445134 0.69492638 65 13
0.8754155 2.3167219 -0.12979318 71 6
1.2611412 3.3357556 0.82332087 67 14
0.87274301 2.3059974 -0.043037634 70 7
1.2218416 3.2266989 0.92450172 11 15
0.51981783 1.364841 -0.39133441 7 0
1.1165134 2.9300001 0.054730747 46 8
0.60426211 1.5840651 -0.39141485 7 1
1.1202472 2.9351752 0.16464894 41 9
0.707371 1.8524219 -0.38543418 7 2
1.1363151 2.9741578 0.27854973 25 10
0.87572157 2.2896907 -0.38827038 24 3
1.1663394 3.0479553 0.40070644 10 11
0.88154149 2.3024986 -0.3027235 85 4
1.1525035 3.0086517 0.51028925 23 12
0.87743145 2.2881751 -0.21440312 78 5
1.2721744 3.3158586 0.69034702 36 13
0.89039713 2.3195651 -0.13021187 70 6
1.2834811 3.341841 0.8264702 64 14
0.88911116 2.3125949 -0.043247063 71 7
1.2061237 3.1355128 0.90017265 13 15
0.52138025 1.3476869 -0.38719329 10 0
1.1303977 2.9203832 0.054660939 43 8
0.61113924 1.5772455 -0.39051503 7 1
1.1413764 2.9441669 0.16548631 46 9
0.71705997 1.8486929 -0.38543418 7 2
1.1547545 2.9755976 0.27924702 25 10
0.88626695 2.2813914 -0.38764465 21 3
1.1750914 3.023304 0.39826906 10 11
0.89790243 2.3089519 -0.3041859 82 4
1.1754028 3.0209858 0.51341796 15 12
0.89952391 2.3095412 -0.21684349 78 5
1.282391 3.2908592 0.68653083 40 13
0.90253049 2.3148711 -0.13021187 71 6
1.3066274 3.3495984 0.83006936 58 14
0.90557218 2.3190842 -0.043456491 69 7
1.2232267 3.1309543 0.90069032 9 15
0.52984267 1.3485345 -0.3882286 8 0
1.151525 2.9293134 0.054940179 48 8
0.61653519 1.5667702 -0.38871542 7 1
1.1582386 2.9418676 0.16569565 41 9
0.73248637 1.8595262 -0.38848713 7 2
1.1761634 2.9843392 0.2806415 24 10
0.89747548 2.2748818 -0.38733178 21 3
1.1909057 3.0171096 0.39826906 10 11
0.91143727 2.3079116 -0.30467337 80 4
1.1977379 3.0313246 0.5162338 15 12
0.91380203 2.3103583 -0.21736643 75 5
1.3162184 3.3260868 0.69530803 38 13
0.91243333 2.3045425 -0.12989786 73 6
1.3241467 3.3427117 0.83006936 63 14
0.92212546 2.325464 -0.043665919 72 7
1.2445894 3.1370769 0.9043138 4 15
0.53975999 1.352919 -0.39029911 7 0
1.1705527 2.9325304 0.055114701 45 8
0.62617671 1.5671397 -0.38961524 7 1
1.1728854 2.933908 0.16559097 33 9
0.73929673 1.848374 -0.38696066 7 2
1.1991761 2.9966378 0.2823846 25 10
0.91231298 2.2774866 -0.38858327 18 3
1.2074244 3.0126758 0.39851278 12 11
0.9220317 2.2994227 -0.3041859 82 4
1.2202135 3.0415115 0.51904958 15 12
0.93405408 2.3258791 -0.21928383 78 5
1.3467911 3.3519399 0.70217711 61 13
0.92746645 2.3071461 -0.13031654 71 6
1.3416315 3.3357325 0.83006936 64 14
0.93578172 2.3243141 -0.043735731 69 7
1.3663824 3.3921399 0.97988898 1 15
0.54683596 1.3500744 -0.39029911 7 0
1.1903993 2.9374802 0.055324126 40 8
0.63583815 1.5674515 -0.39051503 7 1
1.1957426 2.946233 0.1666377 36 9
0.74748766 1.8408395 -0.38619745 7 2
1.214099 2.9884722 0.28221029 22 10
0.92348158 2.2708485 -0.38827038 16 3
1.2314105 3.0265386 0.40119389 15 11
0.93705297 2.3019178 -0.30516088 82 4
1.2443187 3.0552046 0.52249116 12 12
0.94471562 2.3172665 -0.21893522 82 5
1.3643239 3.3448422 0.70217711 59 13
0.94406104 2.313354 -0.13094458 70 6
1.3598161 3.3304658 0.83051926 67 14
0.94642514 2.3156807 -0.043665919 70 7
0.55389827 1.3471924 -0.39029911 7 0
1.2088056 2.9386048 0.05546375 40 8
0.64228052 1.5606089 -0.38961524 8 1
1.2149554 2.9491653 0.16716106 33 9
0.75711542 1.8369007 -0.38619745 7 2
1.2289723 2.9802315 0.28203598 23 10
0.9379763 2.2734497 -0.38952184 16 3
1.2555776 3.0402315 0.40387502 25 11
0.95515656 2.3116572 -0.30711079 78 4
1.2678443 3.0669034 0.52561986 11 12
0.94957924 2.2958853 -0.21736643 74 5
1.3840705 3.3430948 0.70332199 61 13
0.96304107 2.3249855 -0.13188663 66 6
1.3861873 3.3449039 0.83591807 67 14
0.96119773 2.3182497 -0.043805543 68 7
1.4012408 3.3778896 0.97988898 1 15
0.56391996 1.3514054 -0.39236969 7 0
1.2257167 2.9359257 0.055533558 40 8
0.65494901 1.5680138 -0.39231464 7 1
1.234488 2.9540348 0.16778909 31 9
0.7648887 1.8294222 -0.38543418 7 2
1.2522508 2.9921355 0.28377908 20 10
0.94300103 2.2521083 -0.38670605 14 3
1.271714 3.0356693 0.40411878 25 11
0.96914697 2.3122854 -0.30784199 76 4
1.2984043 3.0948331 0.53156441 10 12
0.97315347 2.3184388 -0.21998109 82 5
1.4032547 3.3414769 0.70446682 60 13
0.97634417 2.3237638 -0.13209596 65 6
1.4053657 3.3432341 0.83726782 72 14
0.97022206 2.3058116 -0.043665919 61 7
1.3754328 3.2672372 0.94986594 3 15
0.5677411 1.3414174 -0.39029911 7 0
1.2405601 2.9296844 0.055533558 45 8
0.65706718 1.5502088 -0.38871542 7 1
1.2553958 2.9604025 0.16852181 31 9
0.78212434 1.8434658 -0.3892504 7 2
1.2798357 3.0151029 0.28656808 17 10
0.95400679 2.2453222 -0.38639316 11 3
1.2875931 3.0289683 0.40411878 25 11
0.98357189 2.3126593 -0.30857319 80 4
1.3171462 3.0954919 0.53281587 15 12
0.98371834 2.3096454 -0.21963248 76 5
1.4199606 3.332278 0.70408523 61 13
0.98693067 2.3149457 -0.13188663 66 6
1.4243811 3.3394146 0.83816761 58 14
0.99170357 2.3227694 -0.044084776 60 7
1.3970749 3.2706499 0.95297176 22 15
0.58085471 1.3526273 -0.39444023 7 0
1.2669345 2.9488711 0.056022223 34 8
0.66979378 1.5574888 -0.39141485 8 1
1.2732476 2.9592922 0.1688358 27 9
0.78555721 1.8249186 -0.38619745 7 2
1.3082135 3.0376391 0.28935707 15 10
0.96809751 2.2457376 -0.38733178 11 3
1.3160125 3.0513499 0.40801859 21 11
0.99566662 2.307478 -0.30857319 78 4
1.3411673 3.1066883 0.53594452 15 12
1.0060713 2.3282392 -0.22189851 73 5
1.4475189 3.348223 0.70904624 64 13
1.0022088 2.3170793 -0.13230531 66 6
1.4317845 3.3086615 0.8323189 37 14
1.0022615 2.3138754 -0.044014968 64 7
1.4134116 3.261518 0.95245409 48 15
0.58329993 1.3389409 -0.39133441 7 0
1.2927444 2.9660275 0.056475986 30 8
0.67482287 1.5468156 -0.38961524 8 1
1.295117 2.9672287 0.16967319 26 9
0.79431534 1.8189814 -0.3858158 7 2
1.3304821 3.0453537 0.29075155 15 10
0.98142517 2.2442579 -0.38795751 9 3
1.34152 3.0662413 0.41094348 20 11
1.0101233 2.3076885 -0.30930442 76 4
1.3621689 3.1104805 0.53782177 15 12
1.0182486 2.3229396 -0.22189851 75 5
1.4713372 3.3549821 0.71209919 60 13
1.019945 2.3246026 -0.13303801 69 6
1.456139 3.3171785 0.83636802 39 14
1.0143635 2.3085957 -0.044014968 61 7
1.4258054 3.2434614 0.94934833 38 15
0.58874047 1.3323345 -0.39029911 7 0
1.3131086 2.9701915 0.056685418 32 8
0.68606651 1.5503895 -0.39141485 8 1
1.3227642 2.9878011 0.17124327 28 9
0.80859858 1.8255681 -0.38810554 7 2
1.3480241 3.0419884 0.29110017 16 10
0.98995811 2.2318661 -0.38670605 10 3
1.366414 3.0791335 0.41362458 18 11
1.0270258 2.3132536 -0.31076685 76 4
1.3944732 3.1394119 0.54407912 32 12
1.0287789 2.3139348 -0.22154988 75 5
1.4960637 3.3633771 0.71553379 61 13
1.032915 2.3210549 -0.13314268 68 6
1.4782441 3.32019 0.83906746 37 14
1.0305076 2.3123856 -0.044189494 59 7
1.4388356 3.2271292 0.94676012 37 15
0.59570873 1.3292335 -0.39029911 7 0
1.3335503 2.9742241 0.056894846 30 8
0.69230998 1.5433409 -0.39051503 8 1
1.3457519 2.9972327 0.17218532 26 9
0.81814635 1.8213092 -0.38810554 7 2
1.3614823 3.0294368 0.29057723 16 10
0.99800205 2.2196202 -0.3854546 11 3
1.3876809 3.0848513 0.41533077 21 11
1.0456432 2.3223255 -0.31271678 73 4
1.4165733 3.1446741 0.54626918 33 12
1.0437515 2.3159645 -0.22224714 73 5
1.5082268 3.3450229 0.71324408 63 13
1.0508052 2.3283577 -0.13387538 69 6
1.5020226 3.3266139 0.84266669 36 14
1.0479614 2.3198962 -0.044433825 60 7
1.4607208 3.2321279 0.95038354 17 15
0.60722303 1.3367547 -0.39340496 7 0
1.3527242 2.9765384 0.057069372 28 8
0.70011216 1.5398173 -0.39051503 7 1
1.365042 2.9994721 0.17270868 25 9
0.8249132 1.8117849 -0.38696066 7 2
1.3883615 3.0478909 0.2930176 18 10
1.0125008 2.2217302 -0.38670605 11 3
1.4098641 3.0922384 0.41728067 23 11
1.0573845 2.317003 -0.31271678 74 4
1.4365729 3.1464491 0.54783356 34 12
1.0612552 2.3233373 -0.22346732 71 5
1.5284028 3.3444889 0.71477056 63 13
1.058422 2.3139281 -0.13335203 68 6
1.5261395 3.3349164 0.84671575 39 14
1.0663488 2.3291085 -0.044713065 60 7
1.4883233 3.2492828 0.95763052 10 15
0.61398137 1.3336639 -0.39340496 7 0
1.3778104 2.9914496 0.057488225 25 8
0.70490247 1.5290511 -0.38871542 8 1
1.3852242 3.003407 0.17333671 25 9
0.83571821 1.8111514 -0.38772389 7 2
1.415462 3.0661495 0.29545796 16 10
1.0249478 2.2181921 -0.38701892 10 3
1.4343673 3.1028316 0.41971806 26 11
1.0682654 2.3098197 -0.31247303 70 4
1.4574561 3.1498947 0.54971075 34 12
1.0792669 2.330404 -0.2246875 69 5
1.5343373 3.311502 0.70942789 24 13
1.0768403 2.3230376 -0.13418941 66 6
1.5421801 3.325381 0.84626585 34 14
1.0802135 2.3271205 -0.044782877 62 7
1.5329818 3.3010178 0.97523022 10 15
0.62095553 1.3304311 -0.39340496 7 0
1.407838 3.0149965 0.058081608 22 8
0.71619892 1.5324012 -0.39051503 7 1
1.410237 3.0160141 0.1744881 21 9
0.84186357 1.7996371 -0.38619745 7 2
1.4382522 3.0731332 0.29685244 18 10
1.0432531 2.2271049 -0.38952184 10 3
1.457332 3.1096592 0.42166796 27 11
1.0828722 2.309587 -0.31320426 74 4
1.4764477 3.1475849 0.5506494 31 12
1.0914533 2.3247216 -0.2246875 69 5
1.5675162 3.3371849 0.71667862 33 13
1.090687 2.3209832 -0.13439874 65 6
1.5463036 3.2890444 0.83906746 42 14
1.088977 2.3141954 -0.044643257 61 7
1.5708148 3.3366425 0.9881711 11 15
0.62460852 1.3201764 -0.39133441 9 0
1.434726 3.031081 0.058535371 26 8
0.72254425 1.5251079 -0.38961524 7 1
1.4388399 3.0356612 0.17605817 15 9
0.84875071 1.789883 -0.38505259 7 2
1.4654255 3.0889614 0.29911849 13 10
1.0489678 2.2091212 -0.38733178 9 3
1.488075 3.1324677 0.42581153 26 11
1.1000621 2.3146429 -0.31466666 76 4
1.499693 3.1540833 0.55315232 23 12
1.1027538 2.3171763 -0.2245132 68 5
1.5908748 3.3413403 0.71934998 31 13
1.112273 2.3350751 -0.13555014 69 6
1.5450608 3.2422001 0.82916957 70 14
1.1079667 2.322901 -0.044922493 62 7
1.5949203 3.3423197 0.99231225 15 15
0.62817061 1.3099204 -0.38926387 7 0
1.4557688 3.034344 0.058744799 27 8
0.73220634 1.5248173 -0.39051503 8 1
1.473744 3.0676913 0.17836095 11 9
0.86066169 1.7907231 -0.38619745 7 2
1.4979826 3.1153629 0.30243042 18 10
1.0553799 2.1929193 -0.3854546 10 3
1.5234008 3.1639824 0.43117377 13 11
1.1207829 2.326735 -0.31710407 76 4
1.6156642 3.3526123 0.58944511 55 12
1.1157383 2.3131642 -0.2246875 69 5
1.5912824 3.2976022 0.71171761 45 13
1.1253517 2.3310182 -0.13565481 68 6
1.6171063 3.3481266 0.85841322 32 14
1.1253352 2.3278704 -0.045131925 64 7
1.6224926 3.3547926 0.99852395 16 15
0.63670981 1.3100883 -0.39029911 9 0
1.4830029 3.0500596 0.059198562 25 8
0.73821014 1.5175869 -0.38961524 7 1
1.5028996 3.0868695 0.17993104 15 9
0.87432492 1.7950172 -0.38810554 7 2
1.5483129 3.1773274 0.30922857 16 10
1.0733911 2.2017541 -0.38795751 9 3
1.6383154 3.3575585 0.45871624 43 11
1.1338201 2.322619 -0.31734779 78 4
1.6227945 3.3228066 0.58569074 23 12
1.1370535 2.3271787 -0.22660492 68 5
1.6111146 3.2945156 0.71286243 38 13
1.1384206 2.3268874 -0.13575949 69 6
1.6380405 3.3466153 0.8602128 37 14
1.1423801 2.3329203 -0.04534135 64 7
1.6496512 3.3673553 1.0047356 11 15
0.64868206 1.3171349 -0.39340496 7 0
1.5148604 3.0745413 0.059826851 17 8
0.74614632 1.5137007 -0.38961524 8 1
1.6077245 3.2601426 0.1905029 60 9
0.88861024 1.8011329 -0.39039519 8 2
1.6910754 3.4246402 0.33415511 58 10
1.0831552 2.1925614 -0.38733178 8 3
1.6579278 3.354562 0.45944747 46 11
1.144682 2.3150709 -0.31710407 76 4
1.6445515 3.3231161 0.58725506 22 12
1.1536422 2.3301213 -0.22747649 73 5
1.6225411 3.275763 0.71057272 42 13
1.1519563 2.3246748 -0.13596882 69 6
1.652362 3.3330433 0.85886312 35 14
1.1581353 2.3340716 -0.045480974 62 7
1.6784254 3.3811672 1.0114648 8 15
0.6553399 1.313835 -0.39340496 7 0
1.6304061 3.2672341 0.063736185 62 8
0.754062 1.5097731 -0.38961524 8 1
1.6301279 3.2624004 0.19113094 64 9
0.88925147 1.7788942 -0.38657904 8 2
1.7172998 3.4338565 0.33589822 61 10
1.0963893 2.1903925 -0.38795751 9 3
1.6843582 3.3635845 0.46188486 51 11
1.1630113 2.3214698 -0.31881022 78 4
1.6498444 3.2917917 0.58318776 27 12
1.1711863 2.3347347 -0.22852236 73 5
1.6608055 3.3093348 0.71973157 34 13
1.170386 2.3311059 -0.13670154 66 6
1.6750383 3.334795 0.86156255 35 14
1.1703409 2.3279755 -0.045480974 64 7
1.6943691 3.3688815 1.0104296 10 15
0.65872502 1.3034887 -0.39133441 7 0
1.652905 3.2693601 0.063945621 63 8
0.76371598 1.509282 -0.39051503 8 1
1.6526004 3.2645118 0.19175896 59 9
0.90210116 1.7812198 -0.38810554 8 2
1.7370558 3.4283729 0.33624685 61 10
1.1096293 2.1881461 -0.38858327 8 3
1.7082326 3.3671119 0.46359101 47 11
1.1796441 2.3241982 -0.32002893 76 4
1.6455921 3.2408366 0.57567888 24 12
1.1815909 2.325017 -0.22817372 73 5
1.695015 3.3338451 0.7269823 37 13
1.1898187 2.3391876 -0.1375389 65 6
1.6986649 3.3381352 0.86471182 39 14
1.1834208 2.3235979 -0.045515876 62 7
1.6953235 3.3272579 1.0005945 15 15
0.66201919 1.2931435 -0.38926387 7 0
1.66362 3.2482014 0.063701279 58 8
0.77338552 1.5087311 -0.39141485 8 1
1.683342 3.2824717 0.19332905 66 9
0.91500014 1.7834591 -0.38963199 7 2
1.758621 3.4263215 0.3369441 61 10
1.112045 2.1647351 -0.3854546 8 3
1.7321898 3.3704808 0.46529719 48 11
1.2017813 2.33741 -0.32271007 80 4
1.705006 3.3147366 0.59038377 36 12
1.1992195 2.3294272 -0.2292196 73 5
1.7223362 3.3441229 0.73118013 34 13
1.2029643 2.3347015 -0.13764358 63 6
1.7205833 3.3378568 0.86696136 40 14
1.2047408 2.3351402 -0.045864921 61 7
1.7065184 3.3063197 0.99697101 20 15
0.6741178 1.2999489 -0.39236969 7 0
1.6842871 3.2465467 0.063840903 60 8
0.7776835 1.4977425 -0.38961524 8 1
1.6959014 3.2647512 0.19280569 63 9
0.9225145 1.7751597 -0.38886875 8 2
1.7838914 3.4312074 0.33833858 58 10
1.1288345 2.1693969 -0.38733178 8 3
1.7507325 3.3631246 0.46554092 47 11
1.2140027 2.3310859 -0.32271007 80 4
1.7679744 3.3933573 0.60602719 51 12
1.21877 2.3372495 -0.2306141 73 5
1.7271086 3.3106906 0.72583747 39 13
1.2142497 2.3265996 -0.1375389 64 6
1.7452527 3.3426216 0.87056059 40 14
1.2225072 2.3394346 -0.046074353 61 7
1.7255973 3.3007627 0.99800628 21 15
0.6827113 1.2998223 -0.39340496 7 0
1.7059141 3.2465343 0.064015426 64 8
0.78370035 1.4902008 -0.38871542 8 1
1.7157626 3.2611291 0.19311969 63 9
0.93179601 1.7703055 -0.38886875 7 2
1.8101864 3.4376867 0.33990738 57 10
1.1457053 2.1739414 -0.389209 8 3
1.7738717 3.3644483 0.46700338 47 11
1.2261919 2.3246973 -0.32271007 80 4
1.7857198 3.3840528 0.60602719 48 12
1.236573 2.3414068 -0.23165996 73 5
1.770102 3.3502052 0.73652273 30 13
1.2301477 2.3272734 -0.1379576 64 6
1.7681954 3.3437743 0.87326002 35 14
1.2384807 2.3400719 -0.046213973 61 7
1.7401433 3.286561 0.99645334 22 15
0.68950737 1.2962301 -0.39340496 7 0
1.7351009 3.2605069 0.064469188 66 8
0.79973716 1.5015568 -0.39276454 10 1
1.73657 3.2591522 0.19353838 61 9
0.94013005 1.7636693 -0.38848713 7 2
1.8365995 3.4439836 0.3414762 58 10
1.1533511 2.1609421 -0.38795751 9 3
1.800814 3.3726251 0.46944076 50 11
1.240217 2.3217473 -0.32319754 80 4
1.7996891 3.3676884 0.60477573 48 12
1.2525746 2.3419273 -0.2323572 73 5
1.7894706 3.3443534 0.73728597 30 13
1.2536277 2.3419304 -0.13921365 65 6
1.7893595 3.3413417 0.8750596 32 14
1.2469379 2.3265047 -0.046074353 60 7
1.7527637 3.2688916 0.99386519 20 15
0.68895578 1.2789955 -0.38926387 9 0
1.7549971 3.2566574 0.064573906 68 8
0.80640173 1.4957746 -0.39231464 8 1
1.7612004 3.2640753 0.19437577 59 9
0.9418906 1.7449019 -0.38543418 7 2
1.8498721 3.425555 0.34060463 72 10
1.1605184 2.1481249 -0.38670605 9 3
1.8326097 3.3893433 0.47309685 51 11
1.2599137 2.3291891 -0.32514745 80 4
1.8295182 3.3808045 0.60884303 52 12
1.2625142 2.3320539 -0.23200859 75 5
1.7891858 3.3021419 0.73003525 12 13
1.2677754 2.3388464 -0.139423 65 6
1.8189071 3.3541963 0.88090831 35 14
1.264418 2.3307102 -0.046283782 61 7
1.7692872 3.2599778 0.99386519 18 15
0.70119363 1.2855464 -0.39236969 9 0
1.7739394 3.2509348 0.064643718 67 8
0.8067528 1.4778479 -0.38871542 8 1
1.7901427 3.2779076 0.1957365 61 9
0.9601236 1.757341 -0.3892504 7 2
1.8725628 3.4245627 0.3414762 67 10
1.1698533 2.1385534 -0.38608032 10 3
1.8564124 3.3922133 0.474803 47 11
1.2774055 2.3332298 -0.32660985 78 4
1.8471954 3.3711786 0.60884303 49 12
1.2804542 2.3358939 -0.23305444 73 5
1.8275889 3.3326356 0.73881245 15 13
1.2872828 2.3464079 -0.14026037 65 6
1.8536748 3.3774066 0.88945645 24 14
1.2833438 2.3363264 -0.046528116 59 7
1.7844718 3.2472827 0.99282992 20 15
0.70582432 1.2785983 -0.39133441 9 0
1.7932718 3.2471657 0.064748429 64 8
0.81259459 1.4701923 -0.38781562 8 1
1.8121139 3.2772286 0.19625986 63 9
0.97121191 1.755726 -0.39001361 7 2
1.8908373 3.4167836 0.34165049 87 10
1.1829481 2.1358552 -0.38670605 12 3
1.9597752 3.5369835 0.49649575 26 11
1.2963419 2.3386626 -0.32831606 73 4
1.9226707 3.4671667 0.62792808 21 12
1.2955681 2.3343835 -0.23357739 66 5
1.9164894 3.4517531 0.76743382 34 13
1.3014909 2.3431273 -0.14046971 64 6
1.8807993 3.3846884 0.89395547 14 14
1.3033348 2.3435555 -0.046807356 57 7
1.8014489 3.2378955 0.99282992 18 15
0.71627891 1.2816308 -0.39340496 9 0
1.8200068 3.2551863 0.065097481 66 8
0.82599044 1.4761213 -0.39051503 8 1
1.8282719 3.2659533 0.19615518 63 9
0.97943324 1.7489029 -0.38963199 7 2
1.9758945 3.5267715 0.35367799 35 10
1.1921843 2.1261854 -0.38608032 9 3
1.9685565 3.5093601 0.49405837 28 11
1.3046827 2.324919 -0.32734108 71 4
1.9243612 3.4277682 0.62260926 27 12
1.3155798 2.341464 -0.23497188 68 5
1.9229929 3.4211338 0.7628544 26 13
1.3196156 2.3467259 -0.14109775 65 6
1.8593208 3.3051589 0.8755095 11 14
1.3195122 2.3436689 -0.046946973 57 7
1.8183768 3.2284193 0.99282992 21 15
0.7172721 1.2677742 -0.39029911 9 0
1.8419501 3.2543144 0.065272003 67 8
0.83370829 1.471776 -0.39051503 8 1
1.8483019 3.2615483 0.1964692 61 9
0.98470348 1.7369195 -0.38810554 7 2
1.9805733 3.4921148 0.35123762 34 10
1.2033 2.1199143 -0.38608032 8 3
1.9741606 3.4765651 0.49088979 27 11
1.3246835 2.3318632 -0.32929099 73 4
1.922761 3.3832977 0.6163519 30 12
1.3337334 2.3449342 -0.23601775 68 5
1.9321402 3.3956616 0.75941986 27 13
1.3358364 2.3467278 -0.14151645 64 6
1.8650311 3.2750561 0.87011069 9 14
1.3297844 2.3332536 -0.046877164 57 7
1.8285599 3.2071054 0.98920643 22 15
0.72197974 1.2606486 -0.38926387 9 0
1.8679132 3.2602401 0.065586142 66 8
0.84334129 1.470772 -0.39141485 8 1
1.8762863 3.2708826 0.1976206 64 9
0.99183041 1.7283342 -0.3873423 7 2
1.981966 3.4523232 0.34827435 33 10
1.2074949 2.1015949 -0.38389024 7 3
1.9755185 3.4369235 0.48674619 12 11
1.3447906 2.3386626 -0.33124092 73 4
1.9227201 3.3423624 0.61072022 30 12
1.3469864 2.3396456 -0.23619205 69 5
1.9283371 3.3480704 0.75102425 30 13
1.3610672 2.3621984 -0.14287716 59 6
1.8665814 3.2382331 0.86291224 11 14
1.3479779 2.3366523 -0.047086593 55 7
1.8433948 3.1941411 0.9881711 17 15
0.73050898 1.2601933 -0.39029911 9 0
1.8829507 3.2469556 0.065516338 66 8
0.85468656 1.4732269 -0.39321443 8 1
1.9024113 3.2765594 0.19856264 61 9
1.0028379 1.7265129 -0.38810554 7 2
1.981999 3.4108887 0.34513673 31 10
1.2042172 2.0715475 -0.37951005 7 3
1.9385859 3.3321602 0.47334057 22 11
1.3630078 2.3418837 -0.33270332 73 4
1.9322414 3.3185935 0.6082173 27 12
1.3628228 2.3396842 -0.2368893 69 5
1.9290315 3.3090947 0.74453676 31 13
1.3693938 2.3481376 -0.14245848 52 6
1.9149346 3.282279 0.87730908 48 14
1.3678517 2.3436158 -0.047365833 55 7
1.8634349 3.1914432 0.99024171 16 15
0.74100721 1.2630163 -0.39236969 9 0
1.9029632 3.2422256 0.065621048 64 8
0.852521 1.4519272 -0.38871542 8 1
1.925041 3.2772207 0.19919068 61 9
1.0195212 1.7349558 -0.39115849 7 2
1.9887199 3.3815737 0.34321931 30 10
1.236083 2.1009679 -0.38608032 7 3
1.9312594 3.2812476 0.46749085 23 11
1.3829018 2.3486392 -0.33465323 71 4
1.9365541 3.2863059 0.60415 28 12
1.385172 2.3496804 -0.23863243 69 5
1.9317937 3.2756133 0.7391941 26 13
1.3782158 2.3360164 -0.14214447 53 6
1.9424196 3.2910049 0.88225806 42 14
1.3892587 2.3519166 -0.047679976 54 7
1.8879812 3.1949484 0.99438286 15 15
0.75330669 1.2692173 -0.39547554 9 0
1.933641 3.2566249 0.066109717 63 8
0.86011243 1.447443 -0.38871542 8 1
1.9360495 3.2567961 0.19856264 63 9
1.0205628 1.716095 -0.38810554 7 2
1.9915489 3.347492 0.34077895 30 10
1.2511083 2.1012564 -0.38733178 8 3
1.941303 3.2591522 0.46578467 32 11
1.3961957 2.3430719 -0.33489698 68 4
1.9379911 3.2510104 0.59945697 30 12
1.4025604 2.3509505 -0.23950398 68 5
1.9378512 3.2469091 0.73499632 27 13
1.3975956 2.3407717 -0.14287716 50 6
1.942637 3.2523477 0.87460971 35 14
1.4046316 2.3497598 -0.04778469 57 7
1.9126166 3.1982827 0.99852395 11 15
0.75596279 1.2586313 -0.39340496 9 0
1.9568461 3.2567403 0.066319145 64 8
0.871696 1.4496001 -0.39051503 8 1
1.9592533 3.2568829 0.19919068 60 9
1.0285221 1.7090455 -0.38772389 7 2
1.9997993 3.3216572 0.33921015 34 10
1.2702503 2.108212 -0.38983473 8 3
1.9573154 3.2472432 0.46554092 50 11
1.4104953 2.3391292 -0.33538446 70 4
1.9386618 3.2137549 0.59445107 31 12
1.4148499 2.343575 -0.23950398 66 5
1.945691 3.2215927 0.73156172 31 13
1.4170619 2.3453887 -0.14360988 55 6
1.9425031 3.2137792 0.86696136 32 14
1.41795 2.3440847 -0.047819596 54 7
1.9253364 3.1816132 0.99645334 7 15
0.75652206 1.244751 -0.39029911 9 0
1.9811442 3.25841 0.06656348 61 8
0.88914913 1.4618187 -0.39501405 7 1
1.986665 3.2636397 0.20023739 59 9
1.039499 1.7069902 -0.38848713 7 2
1.9974694 3.2788115 0.33589822 52 10
1.2809039 2.1017561 -0.38983473 7 3
1.9768267 3.2423794 0.46627215 53 11
1.4330634 2.3486571 -0.33782184 68 4
1.9544319 3.2018745 0.59413815 57 12
1.4329239 2.3465862 -0.24054985 68 5
1.950713 3.193275 0.72736394 35 13
1.4407828 2.3566809 -0.14476126 56 6
1.9471017 3.1836152 0.86156255 35 14
1.4339713 2.3437004 -0.047959212 54 7
1.9424226 3.1734757 0.99697101 3 15
0.76483625 1.2441972 -0.39133441 7 0
1.9965641 3.2466371 0.066528574 60 8
0.88836807 1.4440212 -0.39141485 8 1
2.0104887 3.2654474 0.20097008 56 9
1.0491555 1.7033784 -0.38886875 6 2
2.0276256 3.2907112 0.33816427 49 10
1.2811606 2.0784299 -0.38670605 8 3
1.9994648 3.2424698 0.46773461 48 11
1.4532733 2.354888 -0.33977175 67 4
1.9706135 3.191941 0.59413815 57 12
1.4468758 2.342694 -0.24089848 66 5
1.9503403 3.1566374 0.72125804 35 13
1.4610949 2.3629487 -0.14559864 56 6
1.9478134 3.1488597 0.85481399 37 14
1.4542338 2.3500156 -0.048238453 60 7
2.4312956 3.9274025 1.2376727 59 15
0.77112406 1.2403101 -0.39133441 7 0
2.0203645 3.2483759 0.066772908 63 8
0.88973743 1.4294236 -0.38871542 8 1
2.03966 3.2755744 0.20222615 59 9
1.0639912 1.7080451 -0.39115849 7 2
2.052686 3.2939336 0.33955875 52 10
1.2941154 2.0750458 -0.38733178 7 3
2.0069568 3.2167993 0.46554092 23 11
1.4662251 2.3491857 -0.3400155 62 4
1.9961591 3.1970069 0.59695399 61 12
1.4696819 2.3519816 -0.24264158 62 5
1.9710033 3.1530418 0.72278452 53 13
1.4709185 2.3521361 -0.1453893 56 6
1.9554585 3.1257436 0.85121477 37 14
1.4760681 2.3576238 -0.048552595 59 7
2.4661849 3.9375384 1.2449197 64 15
0.78583598 1.2493379 -0.39547554 7 0
2.0458641 3.2512934 0.067052148 66 8
0.89928609 1.4280437 -0.38961524 8 1
2.056782 3.2648506 0.20222615 61 9
1.0666398 1.6924847 -0.38886875 8 2
2.0805295 3.2999952 0.34130189 51 10
1.3028548 2.0649002 -0.38670605 7 3
2.0386052 3.2297487 0.46895328 43 11
1.4816843 2.3465126 -0.34074673 63 4
2.0128717 3.186511 0.59695399 52 12
1.4915576 2.3594115 -0.24421038 64 5
1.9906341 3.1476562 0.72392935 46 13
1.4842836 2.3460891 -0.14549398 55 6
1.9665862 3.1072295 0.84896529 74 14
1.4937439 2.3583088 -0.048727117 54 7
2.4960725 3.9392586 1.2495784 69 15
0.79029316 1.2419459 -0.39444023 7 0
2.0778925 3.2641542 0.06754081 63 8
0.91094017 1.4298891 -0.39141485 8 1
2.078141 3.2607744 0.20264484 59 9
1.0754863 1.686877 -0.38886875 14 2
2.1020672 3.2957745 0.34199914 48 10
1.320025 2.0680411 -0.38858327 7 3
2.0586953 3.2240484 0.46968448 43 11
1.5024995 2.3521049 -0.34269661 67 4
2.0199542 3.1609478 0.59413815 45 12
1.5071115 2.3566046 -0.24473332 62 5
2.019783 3.1570358 0.72850877 46 13
1.5094663 2.3584726 -0.14675003 55 6
1.981778 3.0952482 0.84851533 78 14
1.5071495 2.3521395 -0.048762023 55 7
2.5270903 3.942399 1.2547548 68 15
0.79469347 1.2345425 -0.39340496 7 0
2.100369 3.2616355 0.067715339 61 8
0.92052531 1.4283762 -0.39231464 8 1
2.1103375 3.2733493 0.20411025 59 9
1.0885615 1.6878216 -0.39039519 22 2
2.121454 3.2880719 0.34234774 51 10
1.3308363 2.0611005 -0.38858327 7 3
2.0906262 3.2365701 0.47309685 48 11
1.521258 2.3542101 -0.34415907 70 4
2.0429134 3.1602802 0.59601539 43 12
1.5237582 2.3553729 -0.24543057 62 5
2.0394876 3.1513603 0.7296536 48 13
1.5304773 2.3639495 -0.14758742 55 6
2.0138471 3.1093647 0.85526395 69 14
1.5259699 2.3542845 -0.048971456 55 7
2.5497987 3.9323559 1.2557901 68 15
0.79903853 1.2271265 -0.39236969 7 0
2.1196015 3.2539442 0.067785151 61 8
0.92586344 1.4202718 -0.39141485 8 1
2.1405401 3.28233 0.20536631 61 9
1.0973834 1.6820991 -0.39039519 21 2
2.1451757 3.2869296 0.34339362 52 10
1.3340478 2.0425272 -0.38639316 7 3
2.1097162 3.2289026 0.47358429 48 11
1.5400807 2.3561821 -0.3456215 70 4
2.0691612 3.1644206 0.59883118 42 12
1.5393431 2.3523633 -0.24595349 61 5
2.054884 3.1389966 0.72927201 46 13
1.5515879 2.3692703 -0.14842479 55 6
2.0365081 3.1085577 0.85796332 66 14
1.5459511 2.3579683 -0.049215786 53 7
2.5820084 3.9367201 1.261484 72 15
0.80757761 1.2261531 -0.39340496 7 0
2.1443119 3.2544899 0.068029478 63 8
0.92899585 1.4088972 -0.38961524 8 1
2.1609969 3.2760785 0.20568034 57 9
1.1137445 1.6878012 -0.39306656 21 2
2.1733317 3.2922809 0.34513673 49 10
1.3447235 2.0355146 -0.38639316 7 3
2.1265943 3.2178116 0.47358429 43 11
1.5611551 2.3613331 -0.3475714 65 4
2.0944183 3.1667249 0.60133415 45 12
1.5582374 2.3542397 -0.24699937 61 5
2.082129 3.1445644 0.7330882 46 13
1.5639725 2.3611135 -0.14842479 54 6
2.0592153 3.1075985 0.86066276 63 14
1.5715383 2.3698397 -0.049634643 53 7
2.61113 3.9360256 1.2656252 72 15
0.81398678 1.2219076 -0.39340496 7 0
2.1724112 3.2598588 0.06837853 63 8
0.93827707 1.4074198 -0.39051503 8 1
2.1814449 3.2697036 0.20599434 59 9
1.1291058 1.691744 -0.39535624 23 2
2.1993911 3.2941117 0.34653121 52 10
1.3626895 2.0401807 -0.38858327 7 3
2.1522377 3.2198362 0.47553423 46 11
1.5768069 2.3580773 -0.3483026 64 4
2.1208558 3.1704919 0.60415 49 12
1.5845375 2.3678491 -0.24926542 66 5
2.1051219 3.1434054 0.73537791 49 13
1.5807606 2.3595293 -0.14884347 55 6
2.0722027 3.0919182 0.85931301 58 14
1.5901951 2.3718204 -0.049844075 52 7
2.6482365 3.9484291 1.2739074 75 15
0.82253247 1.2208329 -0.39444023 7 0
2.2017429 3.2666807 0.068762481 61 8
0.95217025 1.4121821 -0.39321443 8 1
2.204668 3.2685549 0.20662238 59 9
1.132163 1.6778706 -0.39344814 22 2
2.2232995 3.2924576 0.3475771 49 10
1.3799871 2.0428395 -0.39046046 7 3
2.1829572 3.230283 0.47870281 45 11
1.5953931 2.3599334 -0.34976503 64 4
2.1285727 3.1462543 0.60164702 45 12
1.5980308 2.3611698 -0.24943975 64 5
2.1331117 3.1505935 0.73957568 48 13
1.6038826 2.3680348 -0.14989018 54 6
2.0987573 3.0975227 0.86381203 52 14
1.5958576 2.3535318 -0.049634643 54 7
2.6764641 3.9457009 1.2775309 76 15
0.82217556 1.2070744 -0.39133441 7 0
2.2227535 3.2621045 0.068902098 59 8
0.9573552 1.4039575 -0.39231464 8 1
2.2273784 3.2652168 0.20714574 57 9
1.1420405 1.6735407 -0.39382979 19 2
2.2421827 3.2844527 0.34792572 48 10
1.3839798 2.0257986 -0.38858327 7 3
2.2065618 3.228642 0.48016527 42 11
1.6144493 2.3613806 -0.35122749 64 4
2.1589677 3.1566367 0.60571432 45 12
1.6159978 2.3609912 -0.25031129 66 5
2.1517975 3.1426208 0.74033892 45 13
1.6275467 2.3760822 -0.1509369 53 6
2.1237583 3.0993524 0.86741126 52 14
1.6172063 2.3583369 -0.049913883 53 7
2.7036426 3.9411919 1.2806368 76 15
0.8306765 1.2059348 -0.39236969 7 0
2.2398055 3.2504201 0.068902098 59 8
0.96469343 1.3989254 -0.39231464 8 1
2.2557876 3.2699482 0.20819245 55 9
1.1407509 1.6529958 -0.39039519 8 2
2.26614 3.2825062 0.34897158 58 10
1.3934444 2.0168996 -0.38827038 7 3
2.2290788 3.22521 0.48138395 40 11
1.6392109 2.3708546 -0.3539086 63 4
2.1855783 3.1599112 0.6085301 43 12
1.6328751 2.3590496 -0.25100854 62 5
2.17381 3.1393821 0.74224705 44 13
1.6433766 2.3724539 -0.15125093 52 6
2.1521685 3.1058083 0.87236023 47 14
1.6466246 2.374486 -0.050437454 51 7
2.7297497 3.9349167 1.2832248 81 15
0.83918738 1.2047395 -0.39340496 7 0
2.2659388 3.2517738 0.069181338 59 8
0.96507537 1.3844327 -0.38961524 8 1
2.2797334 3.2679212 0.20882049 53 9
1.1538848 1.65344 -0.3919217 8 2
2.2946997 3.2869327 0.35071471 53 10
1.4002421 2.004962 -0.38733178 7 3
2.2493458 3.2183762 0.48211515 42 11
1.6550138 2.3671205 -0.3546398 60 4
2.2134159 3.1646111 0.61165881 48 12
1.658499 2.3703456 -0.25310028 66 5
2.2026052 3.145647 0.74644482 42 13
1.6580671 2.3670888 -0.15146028 51 6
2.1728733 3.1008811 0.87415981 47 14
1.6689529 2.3808584 -0.0507516 51 7
2.7695949 3.9495213 1.2925425 75 15
0.84548461 1.2003286 -0.39340496 7 0
2.2921476 3.252943 0.069460578 56 8
0.97904706 1.3889177 -0.39231464 8 1
2.3031514 3.2661343 0.20944853 58 9
1.1599748 1.6443703 -0.39115849 7 2
2.3233714 3.2911484 0.35245782 50 10
1.4164177 2.0056713 -0.38889611 7 3
2.2713339 3.2150562 0.48333386 40 11
1.6727026 2.3668189 -0.3558585 61 4
2.2413609 3.1691074 0.61478752 48 12
1.6823963 2.3778927 -0.25484338 62 5
2.2264371 3.1456766 0.74911612 44 13
1.6769519 2.3684464 -0.1520883 51 6
2.1930463 3.0962043 0.87595946 45 14
1.6883336 2.381876 -0.050961025 51 7
2.8036461 3.9538755 1.298754 73 15
0.85603058 1.2023289 -0.39547554 7 0
2.320184 3.257587 0.069809623 58 8
0.98404413 1.3805984 -0.39141485 8 1
2.3271773 3.263788 0.21007656 55 9
1.1560284 1.6206925 -0.38696066 7 2
2.3492568 3.2923222 0.35385233 45 10
1.4314922 2.0046577 -0.39014763 7 3
2.2996762 3.2192724 0.48577127 38 11
1.6885339 2.362874 -0.35658973 58 4
2.2573731 3.1577218 0.61478752 48 12
1.6971418 2.3722928 -0.25519201 62 5
2.2565885 3.1531339 0.75369561 38 13
1.6986328 2.3726242 -0.15292569 51 6
2.2137656 3.091017 0.87775904 45 14
1.6984537 2.3697515 -0.050891217 51 7
2.8355656 3.9548426 1.3039304 72 15
0.85328496 1.1852874 -0.39133441 7 0
2.3442194 3.255131 0.070019051 61 8
0.99809581 1.3849127 -0.39411426 7 1
2.3570817 3.2693801 0.21122794 51 9
1.1702406 1.6225787 -0.38886875 6 2
2.3687949 3.2832072 0.35420093 45 10
1.4442817 2.0003378 -0.39077336 7 3
2.3257997 3.2200606 0.48772117 42 11
1.710184 2.3668725 -0.35853964 58 4
2.2796621 3.1538632 0.6163519 42 12
1.7153786 2.3714454 -0.25606358 59 5
2.2811241 3.1524084 0.75636691 41 13
1.7274276 2.3863482 -0.15439108 52 6
2.2413499 3.0951667 0.88225806 48 14
1.7190512 2.3721609 -0.051135551 50 7
2.8619041 3.9477615 1.3065187 69 15
0.86402661 1.1870514 -0.39340496 7 0
2.364763 3.2476614 0.070123769 60 8
0.99844724 1.3702182 -0.39141485 8 1
2.3824053 3.26829 0.21196064 49 9
1.1845045 1.6243606 -0.39077684 7 2
2.3894746 3.275589 0.35472387 40 10
1.4407595 1.9736024 -0.38701892 7 3
2.350822 3.2190611 0.48942733 41 11
1.7366058 2.3771203 -0.3614645 60 4
2.3054693 3.1546423 0.61885482 42 12
1.7336529 2.370472 -0.25693512 58 5
2.3068733 3.1530967 0.75941986 37 13
1.7422572 2.3804948 -0.15460044 50 6
2.2736428 3.1054013 0.88855666 47 14
1.7420845 2.377646 -0.051449694 48 7
2.8916721 3.9451869 1.3106596 69 15
0.86794007 1.179399 -0.39236969 7 0
2.3900342 3.2465069 0.070368104 61 8
0.99636126 1.35242 -0.38781562 8 1
2.4077787 3.2670264 0.21269335 51 9
1.1918278 1.6165564 -0.39039519 6 2
2.4266975 3.2902913 0.35768715 39 10
1.4510728 1.9660319 -0.38701892 7 3
2.3617494 3.1987226 0.48820862 37 11
1.7537454 2.3743825 -0.36243945 60 4
2.3360412 3.1615934 0.62260926 37 12
1.7555168 2.3741786 -0.25832963 58 5
2.3303552 3.1504455 0.76170951 37 13
1.7546991 2.3713386 -0.15460044 51 6
2.3003051 3.1075513 0.89260578 52 14
1.7640339 2.3813455 -0.051728934 50 7
2.9329915 3.9579315 1.3199772 78 15
0.87641007 1.1779381 -0.39340496 7 0
2.4225218 3.254802 0.070821866 60 8
1.0104133 1.3565614 -0.39051503 8 1
2.4320123 3.2639835 0.21332137 51 9
1.2014486 1.6118684 -0.39077684 7 2
2.4546115 3.2919147 0.35925597 40 10
1.4696158 1.9694899 -0.389209 7 3
2.402215 3.2181275 0.49308339 38 11
1.7720925 2.3731198 -0.36365816 56 4
2.3632016 3.1635623 0.62542504 37 12
1.7810463 2.3825076 -0.26024702 55 5
2.3538725 3.1476352 0.76399928 40 13
1.7766616 2.3749132 -0.1554378 51 6
2.3153775 3.0939038 0.89215589 47 14
1.7896633 2.3896832 -0.052112885 49 7
2.9594674 3.9502501 1.3225653 79 15
0.88488787 1.176421 -0.39444023 7 0
2.4539578 3.2612484 0.071240723 63 8
1.0198466 1.3543663 -0.39141485 8 1
2.45748 3.2623725 0.21405408 55 9
1.2016021 1.5945793 -0.38810554 6 2
2.4814079 3.2917461 0.36065045 42 10
1.4882365 1.9728061 -0.39139909 6 3
2.430989 3.2213521 0.49552077 38 11
1.7916692 2.3733151 -0.36512056 57 4
2.3809259 3.1527202 0.62573791 37 12
1.8031062 2.3858662 -0.26164153 56 5
2.3797948 3.147794 0.76705217 37 13
1.80353 2.3846936 -0.15669388 51 6
2.3421264 3.0957258 0.89620501 39 14
1.8009444 2.3786855 -0.052077983 50 7
3.0011036 3.9624214 1.331883 81 15
0.88869703 1.168696 -0.39340496 7 0
2.4794738 3.2594967 0.071485057 64 8
1.0340064 1.3583112 -0.39411426 7 1
2.4902573 3.270118 0.21541482 54 9
1.2123137 1.5913897 -0.38886875 7 2
2.4998176 3.2802927 0.36082479 40 10
1.4925556 1.9571334 -0.38983473 7 3
2.4646797 3.2306745 0.49893317 37 11
1.8173203 2.3812587 -0.3678017 60 4
2.400996 3.1449218 0.6266765 35 12
1.8143656 2.3748081 -0.26146722 54 5
2.4141254 3.1586888 0.77277648 40 13
1.8305476 2.394258 -0.15794992 57 6
2.3819833 3.1143765 0.90520304 21 14
1.8194507 2.3771634 -0.052252505 49 7
3.0229864 3.9481852 1.3324004 84 15
0.8900941 1.1579007 -0.39133441 7 0
2.5026038 3.2543941 0.071659587 63 8
1.03635 1.3467013 -0.39231464 8 1
2.5207491 3.2744415 0.21656621 55 9
1.2230254 1.5881308 -0.38963199 6 2
2.5339806 3.2892563 0.36326513 37 10
1.4979587 1.9430337 -0.38858327 7 3
2.4900465 3.2287295 0.50063932 37 11
1.8467389 2.3937154 -0.37121406 60 4
2.4282925 3.1463811 0.62949234 34 12
1.8352994 2.3763142 -0.26268741 55 5
2.4354327 3.1522191 0.7743029 40 13
1.8479447 2.3909616 -0.15836863 57 6
2.4387834 3.1542795 0.92049968 11 14
1.8490046 2.389746 -0.05274117 48 7
3.0649004 3.9598024 1.341718 84 15
0.90325767 1.1623762 -0.39444023 7 0
2.5306535 3.2554555 0.071973726 64 8
1.0455457 1.3445151 -0.39321443 8 1
2.5464451 3.2722328 0.21729892 54 9
1.2349416 1.5863534 -0.39077684 7 2
2.5658605 3.2948053 0.36535689 39 10
1.5138434 1.9432191 -0.39014763 7 3
2.511802 3.2219079 0.50161427 35 11
1.8641293 2.390275 -0.37218902 60 4
2.4605286 3.1538713 0.63355964 34 12
1.8571104 2.3795595 -0.2640819 56 5
2.4627793 3.1533504 0.7777375 39 13
1.8678164 2.3906958 -0.15899664 56 6
2.5152664 3.2182393 0.94299489 11 14
1.8709291 2.3929601 -0.05302041 48 7
3.1015666 3.9655423 1.3489649 82 15
0.91171777 1.1606697 -0.39547554 7 0
2.5600202 3.2578835 0.072322771 61 8
1.0453455 1.3298297 -0.39051503 7 1
2.5666785 3.2640111 0.21761292 49 9
1.2417414 1.5785393 -0.39039519 6 2
2.5953996 3.2969813 0.3671 39 10
1.519109 1.9290578 -0.38889611 7 3
2.5354471 3.2185104 0.50307667 35 11
1.8786613 2.3839269 -0.37267649 60 4
2.488018 3.1549044 0.63637549 34 12
1.8831178 2.3870103 -0.26599932 58 5
2.4945197 3.1608794 0.78269857 40 13
1.8897928 2.3937528 -0.15983403 57 6
2.573796 3.2589927 0.95874137 9 14
1.8908741 2.3925433 -0.053229842 47 7
3.1354656 3.965919 1.354659 75 15
0.91277689 1.1499875 -0.39340496 7 0
2.58518 3.2558472 0.072567105 65 8
1.0571437 1.3304409 -0.39231464 7 1
2.5974033 3.2677269 0.21876432 54 9
1.2402148 1.5597223 -0.3873423 6 2
2.6219769 3.2962763 0.36849448 39 10
1.5365704 1.9303503 -0.39077336 7 3
2.5646303 3.2207193 0.50551409 34 11
1.9022486 2.3880327 -0.37487015 61 4
2.5064168 3.14536 0.63700122 34 12
1.9030436 2.3864636 -0.2670452 57 5
2.5294006 3.1707952 0.78842276 37 13
1.9147587 2.399436 -0.16088074 57 6
2.6321621 3.2972529 0.97403812 1 14
1.9121115 2.3935471 -0.053474173 45 7
