# .PCD v0.7 - Point Cloud Data file format
VERSION 0.7
FIELDS x y z intensity ring
SIZE 4 4 4 4 2
TYPE F F F F U
COUNT 1 1 1 1 1
WIDTH 1316
HEIGHT 1
VIEWPOINT 0 0 0 1 0 0 0
POINTS 1316
DATA ascii
1.6064143 1.2021892 -0.39001361 7 2
5.0078621 3.746361 0.54716372 57 10
1.9792807 1.4796145 -0.39139909 6 3
5.0089655 3.743098 0.76777691 79 11
2.555701 1.9091281 -0.39168811 7 4
5.0031633 3.7360373 0.98897886 89 12
3.3134127 2.4724431 -0.3616963 33 5
5.0137448 3.739852 1.215835 82 13
3.3175726 2.4737449 -0.21688022 36 6
5.0029716 3.7291024 1.4405866 59 14
3.3084836 2.4642708 -0.072008632 34 7
5.0111337 3.7311063 1.6740416 74 15
1.1793134 0.87455857 -0.39340496 7 0
4.5156741 3.3475285 0.098117426 35 8
1.3717294 1.0161383 -0.39411426 6 1
4.5231576 3.3494079 0.29496548 36 9
1.6174209 1.1972655 -0.39115849 7 2
4.9889717 3.6916451 0.54298031 46 10
1.9885895 1.4704051 -0.39171195 6 3
4.9694319 3.6731613 0.7587586 25 11
2.5720475 1.9004399 -0.39266306 7 4
4.9447966 3.6522841 0.97364825 40 12
3.3519621 2.4739904 -0.36448529 37 5
4.9605861 3.6599338 1.1982806 28 13
3.3610198 2.4788637 -0.21886899 33 6
4.9518466 3.6508136 1.4203409 24 14
3.3503194 2.4682648 -0.072636917 34 7
1.1807606 0.8660869 -0.39236969 6 0
4.5686202 3.3498495 0.098885335 33 8
1.3864623 1.015853 -0.39681366 6 1
4.609921 3.3764229 0.29946637 26 9
1.6284194 1.1922601 -0.39230329 7 2
5.0018001 3.6607671 0.542283 70 10
1.9851003 1.4518095 -0.38952184 7 3
5.0206451 3.6705244 0.76363337 64 11
2.5915806 1.8939729 -0.39412549 7 4
5.0228701 3.6694577 0.98522437 72 12
3.384181 2.4705019 -0.36657706 31 5
5.0209146 3.6639988 1.2082026 69 13
3.3981559 2.4788888 -0.22043908 36 6
5.0181303 3.6592832 1.433838 49 14
3.3939035 2.4730654 -0.073300108 34 7
1.1977885 0.86896843 -0.39651078 7 0
5.0053687 3.6299446 0.10792568 72 8
1.3759834 0.99714357 -0.39231464 7 1
4.9995499 3.6217322 0.3235409 56 9
1.6394104 1.1871717 -0.39344814 7 2
5.0144458 3.6298513 0.54158574 72 10
1.9910737 1.4402386 -0.389209 7 3
5.0060163 3.6197565 0.75851488 75 11
2.6014612 1.8803784 -0.39412549 7 4
5.0244007 3.6303835 0.98178285 80 12
3.4358373 2.480741 -0.37076053 35 5
5.0177426 3.6215754 1.20286 78 13
3.4321463 2.4762516 -0.22179982 34 6
5.0324788 3.6295404 1.4324883 60 14
3.4327636 2.4739654 -0.073858589 34 7
5.0158272 3.6135406 1.6564419 82 15
1.2023226 0.86268413 -0.39651078 7 0
5.0064321 3.5908656 0.10754173 78 8
1.3891048 0.99560189 -0.39456415 6 1
5.0038338 3.5850356 0.32259887 64 9
1.6328346 1.1694269 -0.39039519 7 2
5.0171814 3.5919492 0.53984267 70 10
2.0050132 1.4343917 -0.39046046 6 3
5.0055227 3.5796404 0.75559002 79 11
2.5951223 1.8551865 -0.39168811 7 4
5.0095882 3.5799088 0.97521257 82 12
3.4860725 2.489347 -0.37476969 36 5
5.014266 3.5792837 1.1975174 80 13
3.4710763 2.4768095 -0.22347455 34 6
5.0180979 3.5793755 1.4230404 61 14
3.4880078 2.4861362 -0.074766114 33 7
5.0205197 3.5771384 1.6517832 84 15
1.2005208 0.85190535 -0.39444023 7 0
5.015378 3.5576627 0.1073323 84 8
1.3909471 0.98630375 -0.39366436 7 1
4.9964609 3.540313 0.32092413 50 9
1.6357317 1.1585909 -0.38963199 6 2
5.0229106 3.5564215 0.53844815 68 10
2.0122478 1.4242247 -0.39046046 6 3
5.0089931 3.5439396 0.75339633 73 11
2.6112835 1.8461578 -0.39266306 8 4
5.005682 3.5376654 0.97083241 78 12
3.5262907 2.4912152 -0.37773296 35 5
5.0178838 3.5436668 1.1940827 84 13
3.5280566 2.4896948 -0.2263007 31 6
5.016068 3.5384505 1.4171916 62 14
3.5103519 2.4753633 -0.074975535 30 7
5.0148768 3.5349851 1.6440187 88 15
1.2079797 0.84803796 -0.39547554 7 0
4.5537238 3.1956644 0.09710519 44 8
1.4038979 0.98484701 -0.39591387 6 1
4.5531173 3.1916819 0.29140663 56 9
1.6447901 1.1525507 -0.39039519 6 2
4.549654 3.186887 0.48598042 52 10
2.0226672 1.4162872 -0.39108619 7 3
4.5552406 3.1884308 0.68271214 57 11
2.623848 1.8351922 -0.39315054 8 4
4.5540342 3.1840348 0.88010043 46 12
3.5600846 2.4881721 -0.37999901 33 5
4.5658164 3.1899004 1.0826503 60 13
3.5668159 2.490098 -0.22797546 28 6
5.0163355 3.5007479 1.4122428 61 14
3.5539975 2.4793019 -0.075638726 27 7
5.0073495 3.4918785 1.6357363 88 15
1.2090832 0.83970875 -0.39444023 6 0
4.5517697 3.1600323 0.096721239 71 8
1.4152687 0.98217267 -0.39771348 6 1
4.5642886 3.1651828 0.2910926 66 9
1.6602839 1.1509216 -0.39268494 6 2
4.5559011 3.1570089 0.48493454 58 10
2.0200663 1.3992833 -0.389209 6 3
4.558816 3.1554968 0.68076223 52 11
2.6396332 1.826406 -0.39412549 7 4
4.5635934 3.1564484 0.87884891 51 12
3.5988543 2.48825 -0.382788 37 5
4.5614586 3.1514423 1.0776893 56 13
3.6089559 2.4924421 -0.22985955 30 6
5.0227647 3.4675627 1.4090934 62 14
3.5961251 2.4817276 -0.076267019 26 7
5.005878 3.453325 1.6295248 88 15
1.2102782 0.83117968 -0.39340496 7 0
4.5797958 3.1440756 0.096965574 27 8
1.4043237 0.96372265 -0.39321443 7 1
4.5868387 3.1465588 0.2915113 19 9
1.6693263 1.1447238 -0.39344814 6 2
4.5986648 3.1511316 0.48772353 20 10
2.0371442 1.3953836 -0.39108619 6 3
4.6091256 3.1559331 0.68588072 16 11
2.6455667 1.8107806 -0.39363801 7 4
4.5996246 3.1458914 0.88260335 55 12
3.6513062 2.496361 -0.38697147 41 5
4.8658671 3.3254948 1.1456172 39 13
3.6446128 2.4899163 -0.23132494 28 6
5.0241575 3.431107 1.4045944 59 14
3.6520162 2.4921701 -0.077174544 27 7
5.0159101 3.4216251 1.6269366 84 15
1.2240576 0.83155656 -0.39651078 6 0
5.0174966 3.4073279 0.1058663 78 8
1.4190259 0.96292168 -0.39591387 6 1
4.9999413 3.3915827 0.31663257 14 9
1.672047 1.1337644 -0.39268494 6 2
5.0219159 3.4039297 0.53077847 55 10
2.0444221 1.3846986 -0.39108619 6 3
5.0118732 3.3932948 0.74315935 64 11
2.641861 1.7880009 -0.39168811 8 4
4.607307 3.1170375 0.88103902 25 12
3.7006419 2.5017555 -0.39080635 39 5
5.0279837 3.3978074 1.1795813 67 13
3.6906998 2.4931602 -0.23341838 30 6
5.0162158 3.3873014 1.397396 64 14
3.6998239 2.4965036 -0.07790754 24 7
5.0241499 3.3888302 1.6238307 86 15
1.2316018 0.82729077 -0.39754605 7 0
5.026968 3.3754354 0.10569178 81 8
1.417575 0.95113587 -0.39411426 6 1
4.9827981 3.3419931 0.31443447 12 9
1.6649152 1.1162475 -0.38963199 6 2
5.0231185 3.3664982 0.52903533 61 10
2.0582099 1.3783717 -0.39233768 5 3
5.0213227 3.3614862 0.74194062 76 11
2.6544857 1.7763526 -0.39217559 7 4
5.0274696 3.3630571 0.95800477 70 12
3.7451613 2.5033827 -0.39411828 38 5
5.0375443 3.3659801 1.1776732 69 13
3.7468851 2.5026457 -0.23613985 28 6
5.020916 3.352335 1.3937967 64 14
3.7377963 2.493746 -0.078431122 26 7
5.0241446 3.3506885 1.6181368 80 15
1.2198244 0.81014216 -0.39236969 6 0
5.0212479 3.3335853 0.10520311 75 8
1.4241601 0.94477689 -0.39456415 6 1
4.9802532 3.3026133 0.31317839 10 9
1.6772822 1.1118543 -0.39115849 6 2
5.0174265 3.3247404 0.526595 63 10
2.0686922 1.3697578 -0.39296341 5 3
5.0256138 3.3263803 0.73999077 79 11
2.6670606 1.764621 -0.39266306 8 4
5.0235901 3.3225229 0.95393753 76 12
3.7814875 2.4991193 -0.39655861 39 5
5.0354414 3.3265731 1.1730938 75 13
3.7966049 2.5072038 -0.23844264 30 6
5.0221372 3.315263 1.3892977 62 14
3.7908652 2.5005643 -0.079268835 24 7
5.0222664 3.3115742 1.611925 82 15
1.2272791 0.80586523 -0.39340496 7 0
5.0118861 3.2896907 0.10464463 75 8
1.4339758 0.94051379 -0.39591387 6 1
4.9841156 3.2677305 0.31234103 10 9
1.6863651 1.1052089 -0.3919217 6 2
5.024765 3.2918742 0.52554911 65 10
2.0593088 1.3480878 -0.38983473 6 3
5.0263505 3.2891529 0.73755336 81 11
2.682909 1.7549785 -0.39363801 8 4
5.0243864 3.2853599 0.95080876 82 12
3.821208 2.496721 -0.3993476 36 5
5.0363545 3.2894228 1.1692775 84 13
3.8464723 2.5113134 -0.24074543 30 6
5.0361619 3.2867935 1.3883979 62 14
3.8357303 2.5014367 -0.079932027 24 7
5.0249705 3.2757392 1.6072664 84 15
1.2347221 0.80153227 -0.39444023 7 0
5.0206537 3.2579622 0.1044701 75 8
1.4290696 0.92663175 -0.39321443 7 1
4.9726644 3.2231228 0.3105616 8 9
1.6888337 1.0942286 -0.39115849 6 2
5.0285554 3.2568541 0.52415466 65 10
2.0696561 1.339433 -0.39046046 6 3
5.0185032 3.2466152 0.73389727 78 11
2.6953945 1.7430634 -0.39412549 7 4
5.0315657 3.2525752 0.94893163 78 12
3.8576591 2.4918132 -0.40178797 18 5
5.0172229 3.2395806 1.160882 65 13
3.8864186 2.5084679 -0.24242018 30 6
5.0336533 3.2477005 1.3829991 59 14
3.8941543 2.5105736 -0.080874451 94 7
5.025815 3.2389176 1.6020899 84 15
1.2356505 0.79296947 -0.39340496 7 0
5.0275469 3.2251482 0.10426068 75 8
1.4371834 0.92123961 -0.39411426 6 1
4.947433 3.1701007 0.3079448 12 9
1.7110715 1.0959605 -0.39497465 6 2
5.03547 3.2240357 0.52310878 61 10
2.0799685 1.3307078 -0.39108619 6 3
5.0170369 3.2085309 0.73121613 81 11
2.6944501 1.7225096 -0.39266306 7 4
5.0235572 3.2102311 0.94423854 74 12
3.4390886 2.196007 -0.35698992 49 5
5.0374255 3.2153802 1.1616452 78 13
3.4061677 2.1733146 -0.2117513 64 6
5.0210156 3.2024364 1.3749009 53 14
3.910619 2.4922984 -0.080944255 79 7
5.0329304 3.2063298 1.5989841 84 15
1.2495735 0.79269761 -0.39651078 7 0
5.0308533 3.1902144 0.10398144 78 8
1.4484116 0.91812664 -0.39591387 6 1
4.960588 3.1420164 0.30773544 10 9
1.6935644 1.0722829 -0.38963199 6 2
5.0320802 3.184839 0.52101701 61 10
2.0933547 1.3243873 -0.39233768 6 3
5.0220227 3.1747918 0.72950995 73 11
2.710144 1.7126206 -0.39363801 7 4
5.026937 3.1754436 0.94173563 72 12
3.4349971 2.1689994 -0.3554211 74 5
5.0359282 3.1774359 1.1574475 78 13
3.4141228 2.1533191 -0.21154197 78 6
5.0261741 3.1688292 1.3717515 45 14
3.9079571 2.4628787 -0.080630124 68 7
5.0278444 3.1674302 1.5922549 61 15
1.2504336 0.78409129 -0.39547554 7 0
5.0373211 3.1574588 0.10377201 84 8
1.4498963 0.90846056 -0.39501405 6 1
4.9645791 3.1094468 0.30700275 10 9
1.7056258 1.0678651 -0.39115849 6 2
5.0284185 3.1457665 0.51892531 63 10
2.1019351 1.3144566 -0.39265057 6 3
5.0296111 3.1440706 0.72829127 72 11
2.7255118 1.7030888 -0.39461297 7 4
5.0267396 3.1386163 0.93860692 78 12
3.4006715 2.1225004 -0.35071471 69 5
5.0352893 3.1415155 1.1536313 78 13
3.4215884 2.1338964 -0.2113326 84 6
5.0355344 3.1392243 1.3699518 39 14
3.9106154 2.4360387 -0.080420688 68 7
5.0230417 3.1277852 1.5855255 74 15
1.2445347 0.77164459 -0.39236969 7 0
5.0294428 3.1171732 0.10328334 84 8
1.4612598 0.90496117 -0.39681366 6 1
4.9723005 3.0781548 0.30647939 10 9
1.7011777 1.0527202 -0.38886875 6 2
5.0256362 3.108747 0.51700783 17 10
2.0987074 1.2972 -0.39077336 7 3
5.0308046 3.1083035 0.72609758 73 11
2.7242575 1.6825368 -0.39315054 7 4
5.0324769 3.1069067 0.93672973 74 12
3.399868 2.0973444 -0.34949452 56 5
5.0249333 3.0986173 1.1475254 78 13
3.4072125 2.1002314 -0.20976254 81 6
5.048583 3.1107724 1.3690522 63 14
5.0228968 3.0913179 1.5803492 86 15
1.2551467 0.76915503 -0.39444023 7 0
5.0320525 3.0824416 0.10300411 78 8
1.4560057 0.89119333 -0.39411426 6 1
4.9576826 3.0333169 0.30459529 10 9
1.7200649 1.0519937 -0.3919217 6 2
5.0095472 3.062644 0.5136959 8 10
2.1054704 1.286194 -0.39077336 7 3
5.0317636 3.072608 0.72390395 76 11
2.7431972 1.6744536 -0.39461297 6 4
5.0351839 3.0722845 0.93422669 72 12
3.421011 2.0857348 -0.3505404 82 5
5.0327053 3.0671573 1.1456172 76 13
3.4062216 2.0750897 -0.20902982 79 6
5.0381732 3.0680752 1.3618537 56 14
3.7736225 2.2962043 -0.077104732 13 7
5.0291123 3.058949 1.5772433 86 15
1.2690712 0.76857746 -0.39754605 7 0
3.6488144 2.2089298 0.074451968 9 8
1.4638325 0.88582999 -0.39501405 6 1
4.9786258 3.0104136 0.30490932 10 9
1.7255496 1.0429728 -0.3919217 7 2
5.0272193 3.0374041 0.51387024 4 10
2.1170266 1.2785842 -0.39171195 6 3
5.0239873 3.031862 0.72049159 31 11
2.7383282 1.6518651 -0.39266306 6 4
5.0359769 3.0366971 0.93141097 78 12
3.4434674 2.0755956 -0.35176057 74 5
5.0386057 3.0346856 1.1433275 75 13
3.4307282 2.0654688 -0.20986721 94 6
5.0307918 3.0275872 1.3555551 60 14
3.9291337 2.363663 -0.080036737 71 7
5.0296283 3.0244992 1.5725845 82 15
1.266448 0.75795305 -0.39547554 7 0
5.0297356 3.0090439 0.10230601 72 8
1.4717953 0.88015413 -0.39591387 6 1
3.6857772 2.2032707 0.22504464 10 9
1.7206943 1.0281841 -0.38963199 6 2
5.043056 3.0110369 0.51387024 2 10
2.1169066 1.2634332 -0.39046046 6 3
2.7534742 1.6420507 -0.39363801 6 4
5.0263529 2.995121 0.92671788 72 12
3.4696949 2.0667114 -0.35332939 77 5
5.0505266 3.0071375 1.1425643 80 13
3.4685996 2.0644212 -0.21154197 90 6
5.0393524 2.9980989 1.3537554 60 14
3.9156713 2.3277316 -0.079513162 73 7
5.0354323 2.9921985 1.5694788 75 15
1.2636169 0.74759954 -0.39340496 7 0
5.0276895 2.9733675 0.10195696 17 8
1.4762315 0.87269318 -0.39591387 7 1
3.7712076 2.2276218 0.22954552 3 9
1.7395788 1.0271456 -0.39268494 7 2
3.7919569 2.2380934 0.38522837 1 10
2.1283786 1.2557133 -0.39139909 6 3
2.7620337 1.6276121 -0.39363801 7 4
5.0550647 2.9776618 0.9292208 40 12
3.485261 2.0521572 -0.35385233 79 5
5.0831246 2.9906063 1.1463805 46 13
3.5051854 2.0614178 -0.21311203 81 6
5.08354 2.9884629 1.3614038 43 14
3.7498257 2.203531 -0.075917974 42 7
5.0721679 2.9793928 1.576208 55 15
1.2741855 0.74487209 -0.39547554 7 0
3.7603781 2.1973891 0.076022685 64 8
1.4841456 0.86691797 -0.39681366 6 1
3.7738109 2.20347 0.22902218 24 9
1.7396681 1.0153594 -0.39154008 7 2
3.7812498 2.2051594 0.38296232 8 10
2.1383369 1.2465423 -0.39202482 6 3
2.7702367 1.6136109 -0.39363801 7 4
5.1337562 2.9879172 0.94079703 40 12
3.5149021 2.0449007 -0.35576975 77 5
5.1423221 2.9905002 1.1563026 46 13
3.5259347 2.0496721 -0.21374007 79 6
5.1508341 2.9930451 1.3753507 42 14
3.9186816 2.2752371 -0.079094306 69 7
5.154531 2.9915848 1.5969136 57 15
1.2780679 0.73819065 -0.39547554 6 0
5.0343046 2.9065583 0.10146829 69 8
1.4786866 0.85303247 -0.39411426 6 1
3.8618054 2.2269204 0.23362774 12 9
1.7553421 1.0118146 -0.39382979 7 2
5.061595 2.9164283 0.51108128 4 10
2.1450508 1.2349533 -0.39202482 6 3
5.1925421 2.9882586 0.73560339 28 11
2.7754843 1.59662 -0.39315054 7 4
5.2041287 2.9925058 0.95080876 40 12
3.5449176 2.0367711 -0.35768715 76 5
5.2146077 2.9948995 1.168896 48 13
3.547365 2.0365329 -0.2143681 79 6
5.2244196 2.9981101 1.3906474 44 14
3.9344032 2.2559924 -0.079164118 71 7
5.2293038 2.9972746 1.6150309 53 15
1.2819154 0.73148906 -0.39547554 6 0
3.9481974 2.2520123 0.07933864 45 8
1.4932913 0.85106772 -0.39681366 6 1
3.8144093 2.1730547 0.23006889 34 9
1.7623219 1.0035808 -0.39421138 6 2
5.0508232 2.8751004 0.5084666 8 10
2.1583555 1.2276123 -0.3932763 6 3
5.2771454 3.0002735 0.74535298 40 11
2.7803547 1.5801036 -0.39266306 7 4
5.2695351 2.9935136 0.95988196 38 12
3.5815239 2.0329361 -0.36030185 72 5
5.2865658 2.9995282 1.1814893 41 13
3.5701406 2.0248275 -0.2151008 76 6
5.2909026 2.9995482 1.4041444 41 14
3.9322422 2.2274754 -0.078884877 69 7
5.2936764 2.9974594 1.6300424 50 15
1.2857283 0.72476614 -0.39547554 7 0
3.9581931 2.2303267 0.079303734 58 8
1.4875385 0.83750069 -0.39411426 6 1
3.9214654 2.2069273 0.23582584 51 9
1.7572857 0.98856485 -0.3919217 6 2
5.0397592 2.8339665 0.50585192 12 10
2.1613092 1.2143599 -0.39265057 6 3
5.3412457 2.9998188 0.75217766 36 11
2.7851284 1.5635803 -0.39217559 6 4
5.3350935 2.9939182 0.96895516 29 12
3.6112356 2.0248737 -0.36221924 74 5
5.3638515 3.0063646 1.1952276 41 13
3.608573 2.0217254 -0.21677555 75 6
5.3575449 3.0003693 1.4176416 37 14
3.9264011 2.1970906 -0.078535825 71 7
5.3716817 3.0045931 1.649195 50 15
1.2895054 0.71802461 -0.39547554 7 0
3.9488485 2.1979017 0.078884877 58 8
1.4987154 0.8334896 -0.39591387 6 1
3.9224932 2.1805434 0.23519783 48 9
1.7641543 0.98030263 -0.39230329 7 2
4.2707448 2.3721883 0.42741176 1 10
2.1676388 1.2030252 -0.39265057 6 3
5.4349918 3.0151477 0.76314586 72 11
2.8002207 1.5528276 -0.39315054 7 4
5.4301724 3.0099924 0.98334718 80 12
3.6270161 2.0088348 -0.36274219 68 5
5.4379191 3.0105658 1.2082026 73 13
3.6505637 2.0202117 -0.21865964 76 6
5.4396839 3.0090659 1.4351877 70 14
3.930851 2.172632 -0.078396209 68 7
5.4194665 2.9941778 1.6590302 72 15
1.2864764 0.70753884 -0.39340496 7 0
3.814857 2.0972381 0.075987779 36 8
1.5098912 0.82938355 -0.39771348 6 1
3.9233513 2.1542091 0.23456979 49 9
1.7727051 0.97294199 -0.39306656 7 2
4.3145494 2.3670433 0.43054935 15 10
2.1583176 1.1831139 -0.38983473 7 3
5.4367781 2.979017 0.76119596 87 11
2.8117945 1.5400527 -0.39363801 6 4
5.430263 2.9729831 0.98053133 91 12
3.3980169 1.8588172 -0.33886153 11 5
5.4415488 2.9754601 1.2055314 86 13
5.4433951 2.9739988 1.4320384 72 14
3.3541815 1.8310391 -0.066703096 78 7
5.4265928 2.9611301 1.6564419 92 15
1.3003486 0.70632619 -0.39651078 7 0
3.3671148 1.8281935 0.066877626 15 8
1.5005095 0.81403285 -0.39411426 7 1
3.929311 2.1307781 0.23425576 54 9
1.7795007 0.96458298 -0.39344814 6 2
4.3759332 2.3709979 0.43543008 43 10
2.1627457 1.1708561 -0.38952184 7 3
5.438334 2.9429531 0.75924611 27 11
2.8198204 1.5253072 -0.39363801 7 4
5.4752955 2.9604809 0.98585016 19 12
3.3621264 1.8163784 -0.33432943 21 5
3.3690026 1.8162993 -0.066807814 93 7
5.4641299 2.944592 1.6631712 47 15
1.3040292 0.69950771 -0.39651078 7 0
3.4524209 1.8511727 0.06837853 1 8
1.4977401 0.8027451 -0.39231464 7 1
3.9210458 2.0998046 0.23310436 49 9
1.7845269 0.95525199 -0.39344814 6 2
4.3900456 2.3489902 0.43560439 54 10
2.1756115 1.1636217 -0.39077336 7 3
2.8207641 1.5067815 -0.39266306 7 4
3.392369 1.8105949 -0.33642116 1 5
16.89031 9.0110168 3.7211573 1 13
3.4086604 1.8169975 -0.20243551 1 6
15.741662 8.3876257 4.1179543 2 14
5.4994273 2.9277914 1.6693829 19 15
1.3143811 0.69651657 -0.39858136 7 0
3.3839941 1.7924891 0.06684272 13 8
1.5121176 0.80062509 -0.39501405 6 1
3.9210312 2.0743272 0.23247635 49 9
1.782397 0.94253623 -0.3919217 6 2
4.3913088 2.3211551 0.43455851 58 10
2.1919532 1.1581316 -0.39265057 6 3
15.120397 7.9855781 2.0995653 1 11
2.8283546 1.4924846 -0.39266306 8 4
10.392464 5.4816442 1.8609446 1 12
3.4085393 1.7971195 -0.33711842 1 5
15.848455 8.3524113 3.4822643 1 13
14.535411 7.6506915 3.7922251 0 14
3.4102225 1.7942057 -0.067261577 1 7
5.5073357 2.8963237 1.6673124 7 15
1.2973509 0.67910433 -0.39236969 7 0
1.5128347 0.79089153 -0.39411426 6 1
3.9297101 2.053529 0.23237166 54 9
1.7871444 0.93350321 -0.3919217 6 2
4.392405 2.2933655 0.43351269 56 10
2.2014892 1.1484667 -0.3932763 6 3
10.57151 5.5125628 1.4638947 1 11
2.8499556 1.4854897 -0.39461297 7 4
16.190706 8.4355412 2.891535 4 12
3.4320407 1.786607 -0.3385129 1 5
15.327697 7.9757028 3.3586202 1 13
3.4268787 1.7823999 -0.20243551 1 6
15.211958 7.9087234 3.9582386 3 14
3.4195707 1.7763247 -0.067261577 1 7
5.5052805 2.8585446 1.662136 3 15
1.3146187 0.67939752 -0.39651078 7 0
3.4804444 1.7979308 0.06837853 1 8
1.5238819 0.78653449 -0.39591387 6 1
3.940408 2.0329263 0.23237166 51 9
1.7902629 0.92323279 -0.39154008 7 2
4.383101 2.2593825 0.43142092 58 10
2.1934233 1.1296879 -0.39077336 7 3
10.596697 5.4553208 1.4634072 7 11
2.8612239 1.4723647 -0.39510044 8 4
15.066508 7.7497787 2.6834772 9 12
3.4059062 1.7503992 -0.33502665 1 5
15.269711 7.8441939 3.3368678 7 13
3.4361644 1.764432 -0.20243551 1 6
15.37625 7.8921504 3.9901819 0 14
3.4288247 1.7583952 -0.067261577 1 7
1.3112748 0.66899288 -0.39444023 7 0
1.5208988 0.775271 -0.39411426 6 1
3.9420991 2.0077357 0.23184831 49 9
1.8055702 0.91919029 -0.39382979 7 2
4.3948712 2.2364011 0.43142092 58 10
2.2043951 1.121259 -0.39171195 6 3
2.8653548 1.4555646 -0.39461297 7 4
15.26011 7.7485967 2.7106967 4 12
2.940357 1.4923738 -0.2884855 10 5
15.312324 7.765028 3.3372498 3 13
2.9394188 1.4899629 -0.17270868 29 6
15.003642 7.6019006 3.883105 1 14
2.9346054 1.4862357 -0.057418417 58 7
1.3182102 0.66385621 -0.39547554 7 0
1.5214553 0.76554567 -0.39321443 7 1
3.9325833 1.9778851 0.2306969 57 9
1.8084456 0.90915763 -0.39344814 7 2
4.4100809 2.2151492 0.43176955 54 10
2.2172976 1.1132454 -0.39296341 5 3
15.172978 7.6146288 2.0844533 3 11
2.8620386 1.4357035 -0.39315054 7 4
15.307538 7.6721272 2.7119482 1 12
15.084601 7.5538049 3.2792435 1 13
14.829302 7.4194965 3.8282173 1 14
1.3284725 0.6606161 -0.39754605 7 0
2.9814911 1.4819701 0.058116514 2 8
1.5324244 0.7610358 -0.39501405 6 1
3.9410982 1.9563767 0.23059224 55 9
1.8026288 0.89444101 -0.39115849 7 2
4.4069571 2.1857166 0.43037504 58 10
2.2195559 1.099867 -0.39233768 5 3
2.8837495 1.4277427 -0.39510044 7 4
15.395742 7.6190877 2.7207084 1 12
15.352748 7.5878062 3.3288538 3 13
15.173732 7.4927325 3.9069498 2 14
1.3180392 0.64684284 -0.39340496 7 0
2.982028 1.462817 0.057976898 1 8
1.5398878 0.75471741 -0.39591387 7 1
3.9530807 1.9365941 0.2306969 57 9
1.8143402 0.88844359 -0.39268494 6 2
4.3968654 2.1521022 0.4282833 48 10
2.2323825 1.0917013 -0.39358914 5 3
16.011623 7.8267055 2.1882861 3 11
2.8840508 1.409139 -0.39412549 7 4
15.888052 7.7594233 2.8004901 4 12
15.325215 7.4746089 3.3143525 1 13
1.3283631 0.64329994 -0.39547554 7 0
2.989646 1.4471841 0.057976898 1 8
1.5508362 0.75003713 -0.39771348 6 1
3.9505785 1.9097857 0.22996421 58 9
1.8331087 0.88576549 -0.39573789 6 2
4.4026933 2.1264486 0.42776039 52 10
2.2380679 1.0799984 -0.39358914 5 3
16.127483 7.7789721 2.198523 1 11
2.8949652 1.3957441 -0.39461297 8 4
15.624165 7.5294881 2.7469897 1 12
15.852002 7.6222391 4.0608163 4 14
1.3351991 0.6380021 -0.39651078 7 0
2.9683115 1.4177208 0.057418417 1 8
1.5406717 0.73519313 -0.39411426 6 1
3.9569192 1.8873544 0.22975488 58 9
1.8235443 0.86939579 -0.39268494 6 2
4.4101686 2.1016543 0.42741176 50 10
2.2222898 1.0580746 -0.38983473 6 3
16.096292 7.6603065 2.1887736 1 11
2.9022338 1.3805666 -0.39461297 7 4
15.732953 7.480648 2.7591913 4 12
20.779833 9.8669853 4.4714184 2 13
14.984953 7.1089754 3.8291171 0 14
1.3385211 0.63100272 -0.39651078 7 0
2.9684584 1.3987492 0.057278797 1 8
1.5480261 0.72877669 -0.39501405 6 1
3.9595189 1.8632081 0.2293362 58 9
1.8316246 0.86150676 -0.39344814 6 2
4.4229159 2.0793808 0.42758605 54 10
2.2421033 1.0531425 -0.39233768 5 3
2.905829 1.3636646 -0.39412549 8 4
16.013338 7.5114245 2.8014288 1 12
15.558069 7.2879338 3.3395393 1 13
15.793279 7.3913932 4.0257239 5 14
1.3453101 0.62561452 -0.39754605 7 0
2.9539812 1.3730721 0.05685994 1 8
1.5412164 0.7157355 -0.39231464 7 1
3.9529154 1.8348817 0.22839414 12 9
1.8289865 0.84860003 -0.3919217 6 2
4.4228983 2.0511642 0.4265402 54 10
2.2547557 1.044711 -0.39358914 5 3
15.112864 6.9991322 2.0449677 1 11
2.9129293 1.3484305 -0.39412549 7 4
15.842692 7.3304281 2.7648232 6 12
15.727897 7.2673168 3.367779 5 13
15.523906 7.1664758 3.9474411 5 14
1.3415438 0.61534017 -0.39547554 7 0
2.9465876 1.3509202 0.0565807 1 8
1.5591165 0.71414876 -0.39591387 7 1
1.8298343 0.83737773 -0.39115849 6 2
4.4208937 2.0221777 0.42532 48 10
2.2548058 1.0304264 -0.39265057 6 3
2.9343956 1.3397567 -0.3960754 7 4
15.843122 7.2301426 2.7582526 1 12
15.812185 7.2060242 3.377701 1 13
1.3447474 0.60830724 -0.39547554 6 0
1.5628345 0.70597517 -0.39591387 7 1
1.8413517 0.83101535 -0.39268494 6 2
4.4187088 1.9932668 0.42409983 50 10
2.2601697 1.0186069 -0.39265057 5 3
5.467804 2.4630663 0.73633462 51 11
2.9377494 1.3227448 -0.39558792 7 4
5.4563093 2.4555976 0.94768006 51 12
5.4688702 2.4578085 1.1654614 69 13
5.47018 2.4560995 1.3843488 49 14
5.4540148 2.4454107 1.6015723 68 15
1.3479139 0.60125828 -0.39547554 7 0
2.8911705 1.2890456 0.055254318 2 8
1.5592676 0.69488347 -0.39411426 7 1
1.8492647 0.82295972 -0.39344814 6 2
4.4181614 1.9652463 0.42305395 52 10
2.2544663 1.0023386 -0.39077336 6 3
5.4570408 2.4239295 0.73316604 72 11
2.9010925 1.2880107 -0.3897382 13 4
5.463676 2.4245906 0.94674152 70 12
5.4421763 2.4116402 1.1570657 69 13
5.4704914 2.4219036 1.3811995 60 14
2.9788766 1.3181907 -0.05685994 1 7
5.4557199 2.41309 1.5984664 69 15
1.3581169 0.59730375 -0.39754605 6 0
1.5628847 0.6867094 -0.39411426 7 1
1.8534065 0.81358892 -0.39344814 6 2
4.4302168 1.9428835 0.42322829 56 10
2.2723477 0.99607259 -0.39296341 6 3
5.4346933 2.3811409 0.728535 73 11
2.8839357 1.2629579 -0.38656959 20 4
5.4618168 2.389617 0.94423854 80 12
5.4579105 2.3856385 1.157829 75 13
5.4487476 2.3793657 1.3726513 66 14
5.4523444 2.377538 1.5938078 86 15
1.3646674 0.59195942 -0.39858136 7 0
1.5663404 0.67878991 -0.39411426 7 1
3.5960624 1.5569003 0.20536631 5 9
1.8540376 0.80231375 -0.39268494 6 2
4.4363351 1.918857 0.42287967 54 10
2.2755473 0.98377436 -0.39265057 5 3
5.4634867 2.3597381 0.73072863 76 11
2.9397166 1.2690845 -0.39315054 7 4
5.4520774 2.3525493 0.94048411 68 12
2.8576632 1.2324786 -0.27227452 1 5
5.4703269 2.3570275 1.157829 61 13
5.4611306 2.3508053 1.3726513 36 14
2.9188166 1.2558339 -0.05546375 1 7
5.4820547 2.3575447 1.5989841 51 15
1.353538 0.57872915 -0.39444023 7 0
1.5842098 0.67670381 -0.39771348 7 1
3.611244 1.5418154 0.20578501 4 9
1.8544631 0.7913788 -0.3919217 6 2
4.4279947 1.8877854 0.42113656 56 10
2.2806668 0.97184694 -0.39265057 5 3
2.9534085 1.2572988 -0.39412549 7 4
1.3565495 0.57163459 -0.39444023 7 0
1.5806631 0.66509914 -0.39591387 7 1
3.6084859 1.5176096 0.20515697 4 9
1.8623375 0.78285491 -0.39268494 6 2
4.4286332 1.8607173 0.42026496 60 10
2.2786059 0.95643461 -0.39139909 5 3
2.9821355 1.2505139 -0.39705035 7 4
5.5753436 2.3310752 1.3951464 0 14
5.5638895 2.3228645 1.6155485 1 15
1.3630923 0.56600606 -0.39547554 7 0
1.5841237 0.65681422 -0.39591387 7 1
3.6237636 1.501753 0.20557566 2 9
1.8772941 0.77760059 -0.39497465 6 2
4.4364738 1.836743 0.42009068 58 10
2.2872334 0.94600034 -0.39202482 5 3
2.9739649 1.2288173 -0.39510044 7 4
11.458727 4.7323084 1.9635657 1 12
5.5586438 2.2899733 1.3879479 0 14
5.5581102 2.2863505 1.6103721 1 15
1.3731893 0.56178623 -0.39754605 7 0
1.5875413 0.64850986 -0.39591387 7 1
3.620482 1.4782298 0.20494762 2 9
1.884975 0.76924467 -0.39573789 6 2
4.4460316 1.8134857 0.42009068 58 10
2.2958138 0.93550318 -0.39265057 5 3
2.9693272 1.2087379 -0.39363801 7 4
5.5705581 2.2608361 1.3879479 0 14
5.5556822 2.2514117 1.6062311 1 15
1.3796957 0.55603331 -0.39858136 6 0
1.5800678 0.6358242 -0.39321443 7 1
3.6022308 1.4488183 0.20348223 2 9
1.8634751 0.74911153 -0.39039519 6 2
4.4443727 1.7857262 0.41904479 54 10
2.3025141 0.92420381 -0.39296341 6 3
2.9829848 1.1961302 -0.39461297 7 4
2.8373582 1.1360121 -0.2673938 1 5
5.5823188 2.2316399 1.3879479 0 14
5.5673938 2.2222934 1.6062311 1 15
1.3682235 0.54309958 -0.39444023 7 0
2.8829296 1.1437627 0.054137368 1 8
1.5978684 0.63328612 -0.39681366 6 1
1.8710225 0.74079019 -0.39115849 6 2
4.1090779 1.6260695 0.38662288 8 10
2.3054848 0.91140991 -0.39265057 5 3
3.0076699 1.1877874 -0.39705035 8 4
2.8729231 1.1328349 -0.27018279 1 5
16.462645 6.4815001 4.0846615 1 14
5.5573773 2.1846325 1.6000193 1 15
1.3782455 0.53874189 -0.39651078 6 0
2.9075053 1.1359272 0.054486416 1 8
1.5975316 0.62349451 -0.39591387 6 1
1.8858503 0.73526293 -0.39344814 6 2
4.2530532 1.6573427 0.3993476 7 10
2.3065429 0.89789337 -0.39202482 6 3
3.0027475 1.1677042 -0.39558792 8 4
16.496361 6.3952031 4.0846615 1 14
5.5687413 2.1555009 1.6000193 1 15
1.3810472 0.53151852 -0.39651078 6 0
2.8200939 1.0847924 0.05274117 6 8
1.5897534 0.61120456 -0.39321443 7 1
1.8933399 0.72678536 -0.39421138 6 2
4.9127359 1.8848398 0.46035662 2 10
2.311058 0.88620704 -0.39202482 5 3
3.0125279 1.1533865 -0.3960754 7 4
16.230534 6.2010884 3.3773193 1 13
5.5802703 2.1297839 1.3789499 0 14
5.5795803 2.1272864 1.6000193 1 15
1.3910378 0.52701694 -0.39858136 7 0
2.8593967 1.0827593 0.053369459 1 8
1.5965768 0.6042524 -0.39411426 6 1
3.6502237 1.3807607 0.20452894 2 9
1.8859758 0.71302795 -0.3919217 6 2
4.9784551 1.8802086 0.46558598 10 10
2.3156669 0.87409389 -0.39202482 6 3
3.0146124 1.1367227 -0.39558792 7 4
10.829009 4.0789876 1.8327864 1 12
5.6274619 2.1152244 1.3879479 0 14
5.5906415 2.0980446 1.6000193 1 15
1.3864473 0.51726884 -0.39651078 7 0
2.8610933 1.0668747 0.053299651 1 8
1.6106761 0.59996486 -0.39681366 6 1
3.6798639 1.3699926 0.20578501 1 9
1.8933635 0.70451236 -0.39268494 6 2
5.0887494 1.8924879 0.4749988 56 10
2.3294702 0.86539751 -0.39358914 6 3
3.0168004 1.1195424 -0.39510044 7 4
11.169085 4.1315746 2.7493517 1 14
5.6015491 2.0687451 1.6000193 1 15
1.3782558 0.50600737 -0.39340496 7 0
2.8366034 1.0408574 0.05274117 1 8
1.621114 0.59420633 -0.39861327 6 1
3.7394972 1.3699424 0.20871581 1 9
1.8933393 0.69323874 -0.3919217 6 2
5.1116853 1.8706119 0.47621897 12 10
2.3284039 0.85115367 -0.39265057 6 3
3.0151625 1.1010071 -0.39412549 8 4
11.2748 4.1036949 2.7700472 1 14
5.5069962 2.0011165 1.5699965 1 15
1.391788 0.50272214 -0.39651078 7 0
2.8119206 1.0151262 0.052182697 2 8
1.6205366 0.58438843 -0.39771348 6 1
1.9117198 0.68863833 -0.39497465 6 2
3.726706 1.3416985 0.34653121 75 10
2.3253932 0.83627623 -0.39139909 5 3
5.1222939 1.841113 0.6683315 6 11
3.0320954 1.0892309 -0.39558792 8 4
5.0941458 1.8289855 0.857261 12 12
5.095253 1.8263719 1.0521209 33 13
5.1077533 1.8288409 1.2525275 37 14
5.0844464 1.8174931 1.4467984 53 15
1.3834794 0.49154639 -0.39340496 7 0
2.8473473 1.0110966 0.05274117 1 8
1.6088815 0.57068264 -0.39411426 6 1
3.7366958 1.3247025 0.20777377 74 9
1.9115978 0.67730832 -0.39421138 6 2
3.7374372 1.323495 0.34687987 88 10
2.3502252 0.83133608 -0.39484066 6 3
5.0944333 1.8010312 0.66345674 69 11
3.0340133 1.0720184 -0.39510044 8 4
5.1129651 1.805578 0.85882533 60 12
5.1084485 1.8009754 1.0528841 69 13
5.1172595 1.802071 1.2525275 54 14
5.0938935 1.7908453 1.4467984 63 15
1.4006236 0.48939404 -0.39754605 7 0
2.811069 0.98166943 0.051973268 3 8
1.6117488 0.56253332 -0.39411426 6 1
3.732265 1.3011736 0.20714574 90 9
1.9151177 0.66729063 -0.39421138 6 2
3.7386708 1.3019433 0.34635693 93 10
2.3469403 0.81683218 -0.39358914 5 3
5.0866094 1.7693523 0.66126311 73 11
3.0358348 1.0548142 -0.39461297 7 4
5.0980911 1.7703546 0.85475802 54 12
5.1045151 1.7705916 1.0502127 76 13
5.0934777 1.7637761 1.2444292 52 14
5.0974145 1.7631469 1.4452456 68 15
1.3921212 0.47853044 -0.39444023 6 0
2.8160014 0.96742976 0.051973268 3 8
1.6145756 0.55436808 -0.39411426 6 1
3.6348953 1.2466292 0.20138879 48 9
1.9128995 0.65567887 -0.39306656 7 2
3.7395582 1.2810659 0.34583399 100 10
2.3510449 0.80494249 -0.39358914 5 3
5.0917425 1.7423029 0.66077566 72 11
3.0336213 1.0368664 -0.39363801 8 4
5.0920305 1.7394238 0.85225511 54 12
5.1189861 1.7466339 1.0513576 75 13
5.0931168 1.7348307 1.2421798 51 14
5.0953002 1.7335899 1.4421397 74 15
1.3981858 0.47271544 -0.39547554 7 0
2.8322289 0.95700467 0.052182697 2 8
1.6321313 0.55117667 -0.39771348 6 1
3.7187502 1.2543895 0.20568034 85 9
1.9068918 0.64285225 -0.39115849 6 2
3.7346659 1.2583045 0.3447881 100 10
2.3588328 0.794294 -0.39421493 5 3
5.0895076 1.7118187 0.6593132 69 11
3.0388303 1.0214996 -0.39363801 7 4
5.0895343 1.7098531 0.85037786 50 12
5.1168928 1.7160634 1.0490679 70 13
5.1036797 1.7096506 1.2426296 52 14
5.0893536 1.7028732 1.4379987 70 15
1.4043082 0.46660686 -0.39651078 7 0
2.8409967 0.94342208 0.052252505 1 8
1.638694 0.54385072 -0.39861327 6 1
3.7060947 1.2292628 0.20463361 90 9
1.9175754 0.63566309 -0.39268494 6 2
2.3517075 0.77820849 -0.39233768 5 3
5.0981064 1.686038 0.6593132 63 11
2.8535962 0.94318455 -0.3690204 11 4
5.0927906 1.6813225 0.84943926 48 12
5.1050034 1.6833786 1.0448701 66 13
5.1085663 1.6825767 1.2417299 52 14
5.0853534 1.6719804 1.4343752 72 15
1.4103246 0.46069247 -0.39754605 7 0
2.8495369 0.93027246 0.052322313 1 8
1.6266973 0.53042978 -0.39501405 6 1
3.587148 1.1689984 0.19772527 24 9
1.9395449 0.63169348 -0.39650109 6 2
3.9956112 1.3005658 0.36762294 1 10
2.3632643 0.76832694 -0.39358914 5 3
5.0842094 1.6519594 0.65638834 64 11
2.8622713 0.92945743 -0.36950788 30 4
5.1012349 1.6555233 0.84943926 50 12
2.8012595 0.90802419 -0.25763237 14 5
5.1118803 1.65602 1.0444885 71 13
2.8654284 0.9277178 -0.15784526 1 6
5.1117439 1.6540047 1.2403802 51 14
2.7856872 0.90028954 -0.051100649 71 7
5.1032295 1.6482986 1.4369633 70 15
1.4090384 0.45212176 -0.39651078 6 0
2.8029561 0.89885223 0.051379886 14 8
1.6220287 0.51952797 -0.39321443 7 1
3.7491987 1.2001288 0.20630836 23 9
1.9278665 0.61674446 -0.39344814 6 2
5.1106544 1.6339681 0.46942082 90 10
2.3559642 0.75233787 -0.39171195 5 3
5.0908976 1.6247141 0.65614462 66 11
2.8557515 0.91083825 -0.36804545 14 4
5.1060696 1.6275899 0.84881347 48 12
2.8116715 0.89515597 -0.25815532 19 5
5.1167393 1.6280403 1.0437253 71 13
2.8093395 0.8933351 -0.15449576 2 6
5.099905 1.6207238 1.2354312 52 14
5.0915346 1.6151295 1.4312694 71 15
1.4187564 0.44706073 -0.39858136 6 0
1.6321625 0.5133673 -0.39501405 6 1
3.574424 1.1235833 0.19636452 2 9
1.9310694 0.60664147 -0.39344814 6 2
5.1115365 1.6047986 0.46872357 70 10
2.3749502 0.74471974 -0.39421493 5 3
5.0955467 1.596848 0.65565711 72 11
3.0556004 0.9569819 -0.39315054 7 4
5.0956688 1.5949334 0.84568483 48 12
5.1251931 1.6012285 1.0437253 66 13
5.1027393 1.5922589 1.2340814 50 14
5.10361 1.5895988 1.4323047 72 15
1.4100047 0.43619949 -0.39547554 6 0
1.6311045 0.50366336 -0.39411426 6 1
1.9304669 0.59536558 -0.39268494 6 2
2.3807046 0.73285633 -0.39452776 6 3
5.103838 1.5701451 0.65565711 72 11
3.0719543 0.94446951 -0.39461297 8 4
5.0945091 1.5653317 0.8441205 50 12
5.1278758 1.572646 1.0425804 70 13
5.1054177 1.5638064 1.2327318 49 14
5.0915413 1.5566407 1.4266106 75 15
1.4122691 0.42881122 -0.39547554 6 0
2.8913567 0.87735957 0.05274117 1 8
1.641179 0.49737737 -0.39591387 6 1
3.5859935 1.0860916 0.19636452 2 9
1.9335582 0.58524835 -0.39268494 6 2
4.0181575 1.2154503 0.36727428 14 10
2.3731642 0.71695185 -0.39265057 6 3
5.096786 1.5388118 0.65370721 72 11
3.0768571 0.92837292 -0.39461297 8 4
5.1026363 1.5386323 0.8441205 54 12
5.1097217 1.5378507 1.0372378 70 13
5.1098027 1.5359329 1.231832 49 14
5.095921 1.5288517 1.4255754 73 15
1.4144951 0.42141053 -0.39547554 7 0
2.9917386 0.89074057 0.054486416 1 8
1.6362891 0.48655546 -0.39411426 7 1
1.9403598 0.5762347 -0.39344814 6 2
4.1008682 1.2170688 0.37424675 1 10
2.3787787 0.7050783 -0.39296341 5 3
5.0971599 1.5098482 0.65273225 72 11
3.0969031 0.91675854 -0.39656287 7 4
5.1219873 1.515258 0.84599775 46 12
5.1158204 1.5105211 1.0368562 49 13
5.136467 1.5146656 1.236331 33 14
5.1409225 1.5130544 1.4359281 37 15
1.4278079 0.41725025 -0.39858136 7 0
2.9963617 0.87506181 0.054486416 1 8
1.6388141 0.47798172 -0.39411426 7 1
3.6777043 1.0719527 0.20076075 1 9
1.9471198 0.56716579 -0.39421138 6 2
4.084228 1.188899 0.37215498 3 10
2.3900254 0.69481999 -0.39421493 5 3
5.1736207 1.5030782 0.66150689 24 11
3.0864105 0.89610088 -0.39461297 8 4
5.2057362 1.5104357 0.85851246 18 12
5.2122908 1.5093791 1.0547922 24 13
5.2154636 1.5083251 1.2534273 23 14
5.2527142 1.5161183 1.4649159 32 15
1.4188304 0.40657532 -0.39547554 7 0
3.0393507 0.8703723 0.05518451 1 8
1.6600307 0.47475252 -0.39861327 6 1
3.5603628 1.0175568 0.19406174 2 9
1.942512 0.55480605 -0.39268494 6 2
4.1018934 1.1707764 0.37320086 1 10
2.4012294 0.68446195 -0.39546639 5 3
5.3341527 1.519472 0.68100595 24 11
3.0834227 0.87775517 -0.39363801 7 4
5.3256726 1.5150497 0.87697172 19 12
5.3523245 1.519603 1.0815054 20 13
5.3601522 1.5198039 1.2862701 19 14
2.9688063 0.84064674 -0.053858127 7 7
5.3888416 1.5248907 1.5006329 35 15
1.4135004 0.39705086 -0.39340496 7 0
3.0323145 0.8512032 0.054975081 1 8
1.6398966 0.46002781 -0.39321443 8 1
3.5252545 0.9875859 0.19186363 11 9
1.9453905 0.54462719 -0.39268494 6 2
4.0849428 1.1428428 0.37110916 3 10
2.3951511 0.66963977 -0.39390203 6 3
5.4280734 1.5155458 0.69197422 15 11
3.0918007 0.86266488 -0.39412549 7 4
5.4800472 1.5279956 0.90106261 57 12
5.5190854 1.5357666 1.1135614 69 13
5.5051012 1.5298052 1.319113 49 14
5.5137658 1.53014 1.5332441 79 15
1.4230102 0.39169562 -0.39547554 7 0
1.6535572 0.45453396 -0.39591387 7 1
3.7882807 1.0406228 0.20588967 48 9
1.9519087 0.5358128 -0.39344814 6 2
4.0716553 1.1161723 0.36936605 1 10
2.3948143 0.65604544 -0.3932763 6 3
5.1771984 1.4172919 0.65906948 9 11
3.103786 0.84910119 -0.39510044 7 4
5.5051236 1.5039659 0.90387845 65 12
5.5059533 1.5021274 1.1093636 76 13
5.5202937 1.5039726 1.3209126 56 14
5.4937387 1.4936484 1.5254794 82 15
1.4249746 0.38448784 -0.39547554 6 0
3.1104255 0.83867538 0.056231655 1 8
1.6446239 0.44283023 -0.39321443 7 1
3.7975347 1.0218107 0.20609902 61 9
1.9527915 0.52507621 -0.39306656 5 2
4.0310731 1.0831405 0.36518255 4 10
2.4020321 0.64452195 -0.39390203 6 3
5.0925136 1.3654889 0.64736998 28 11
3.1081898 0.83283621 -0.39510044 8 4
5.5336542 1.4817047 0.90732002 25 12
3.147681 0.83871096 -0.05685994 1 7
1.4307035 0.37800887 -0.39651078 6 0
3.2114465 0.84790117 0.057976898 1 8
1.658226 0.43719438 -0.39591387 6 1
3.7796569 0.99580616 0.20484295 64 9
1.9612093 0.51634341 -0.39421138 6 2
4.0020061 1.0528957 0.36204496 4 10
2.4072845 0.63243765 -0.39421493 6 3
5.089993 1.3362873 0.6461513 40 11
3.1125078 0.81655145 -0.39510044 8 4
12.047514 3.1516197 2.420603 1 13
15.164838 3.9614542 3.6185627 0 14
1.4345337 0.37099537 -0.39702842 6 0
1.6642666 0.42947876 -0.39681366 6 1
3.7693467 0.97201371 0.20400558 66 9
1.9524792 0.50312877 -0.3919217 6 2
3.9611583 1.0200003 0.35786149 4 10
2.4048233 0.61834949 -0.3932763 6 3
5.0911536 1.3081328 0.64542013 46 11
3.1167405 0.80024272 -0.39510044 8 4
11.874575 3.0466688 1.9416648 1 12
12.119004 3.1026206 2.43167 5 13
12.134327 3.1020246 2.891521 1 14
1.4270922 0.36111006 -0.39444023 7 0
1.6778291 0.42362168 -0.3995131 6 1
3.7801948 0.95372945 0.2043196 63 9
1.9512798 0.49193764 -0.39115849 6 2
3.941328 0.99291974 0.35559544 6 10
2.4137754 0.60719365 -0.39421493 6 3
5.0767546 1.2761359 0.64273894 52 11
3.1285889 0.78584808 -0.3960754 7 4
12.204581 3.0633116 1.9929754 1 12
11.957973 2.9947593 2.3961794 3 13
12.027517 3.0077212 2.8622773 6 14
1.4308388 0.3540968 -0.39495787 6 0
3.2243681 0.79735482 0.057976898 1 8
1.6629252 0.41091642 -0.39546397 5 1
3.787075 0.934403 0.20442426 66 9
1.957641 0.4826546 -0.3919217 6 2
3.9464734 0.97226888 0.35559544 9 10
2.4072268 0.59260958 -0.39265057 6 3
5.0775843 1.2481143 0.64200777 57 11
3.1288049 0.76850849 -0.39558792 7 4
12.143714 2.9805365 1.9804606 7 12
11.923909 2.9199693 2.3862574 3 13
11.821624 2.890548 2.8096387 2 14
12.125546 2.9603763 3.34446 7 15
1.4420614 0.34887183 -0.39754605 6 0
3.2673738 0.78985661 0.058674991 1 8
1.6650538 0.4022043 -0.39546397 6 1
1.967693 0.47458088 -0.39344814 6 2
3.9166431 0.94319665 0.35245782 17 10
2.4064558 0.5790714 -0.39202482 6 3
5.0741863 1.2200798 0.64078909 67 11
3.1326547 0.75266337 -0.39558792 7 4
12.474177 2.9924879 2.0317712 1 12
12.224923 2.9281747 2.4435 3 13
3.2243834 0.77172703 -0.17375539 3 6
11.747023 2.8093765 2.7884934 6 14
3.3084664 0.7900188 -0.059373088 7 7
1.4400491 0.34067875 -0.39651078 6 0
1.6576538 0.39124209 -0.39321443 7 1
3.9772818 0.93799162 0.21415874 10 9
1.9739724 0.4651728 -0.39421138 6 2
3.8961549 0.91742349 0.35019177 24 10
2.4152234 0.56782043 -0.39296341 6 3
5.074707 1.192132 0.64005786 42 11
3.1249573 0.73352832 -0.39412549 8 4
12.28723 2.8819468 1.9989198 3 12
4.0641055 0.95172989 -0.36518255 3 5
4.084095 0.9549095 -0.21981104 4 6
11.702746 2.7340798 2.7745464 1 14
3.9649425 0.92486107 -0.071066193 13 7
1.4418131 0.33313379 -0.39651078 7 0
1.6691744 0.38474563 -0.39546397 6 1
4.0424747 0.93104959 0.21740359 13 9
1.9610751 0.45130903 -0.39115849 6 2
3.8911972 0.89477777 0.34932023 30 10
2.4220142 0.55605024 -0.39358914 6 3
4.0418725 0.92719764 0.50917011 9 11
3.1326251 0.71804261 -0.39461297 7 4
12.090344 2.7690594 1.9645042 3 12
4.1001086 0.93754452 -0.36797154 50 5
11.872129 2.7125401 2.3671765 1 13
4.096828 0.93528962 -0.22022973 70 6
12.446476 2.8391962 2.9473085 6 14
4.014575 0.91430056 -0.071869008 18 7
1.4359995 0.32388023 -0.39444023 6 0
4.1297846 0.93068832 0.073893487 11 8
1.6768039 0.37757626 -0.39681366 6 1
4.0141673 0.90242469 0.21562417 27 9
1.9710736 0.4427546 -0.39268494 6 2
3.8841648 0.87177277 0.34827435 28 10
2.4247973 0.54378498 -0.39358914 6 3
4.0426402 0.90585941 0.50868267 31 11
3.1402161 0.70249814 -0.39510044 7 4
12.093111 2.7031295 1.9626271 3 12
4.0950794 0.914608 -0.3671 92 5
11.94319 2.6652474 2.3786252 1 13
4.115315 0.91686553 -0.22096242 100 6
12.674213 2.8214178 2.9976976 2 14
4.0855198 0.90873069 -0.073055774 93 7
1.4376204 0.31660762 -0.39444023 7 0
4.1324887 0.9093433 0.073858589 9 8
1.6805966 0.36950335 -0.39726356 6 1
3.9855192 0.87481546 0.21384473 22 9
1.9771248 0.43361327 -0.39344814 6 2
3.8768497 0.84954441 0.34722847 28 10
2.4275186 0.53150469 -0.39358914 6 3
4.0510516 0.88623393 0.50917011 31 11
3.1592467 0.68998319 -0.39705035 8 4
11.853813 2.5867133 1.9216411 5 12
4.0938163 0.89259726 -0.36657706 100 5
12.213573 2.6607599 2.4297619 1 13
4.1003861 0.89178115 -0.2199157 100 6
12.650247 2.7489533 2.9886997 3 14
4.0900669 0.88803977 -0.073055774 100 7
1.4505368 0.31176254 -0.39754605 7 0
4.1077118 0.88211679 0.073335014 14 8
1.6691704 0.35783905 -0.39411426 6 1
3.9781787 0.85212129 0.21321672 21 9
1.9850531 0.42483476 -0.39459303 6 2
3.8811002 0.82991046 0.34722847 30 10
2.4244728 0.51755059 -0.39265057 6 3
4.0323391 0.86004299 0.50624532 34 11
3.1432836 0.66984606 -0.39461297 7 4
11.893801 2.5324516 1.9260213 1 12
4.0945358 0.8703208 -0.36622843 92 5
12.238859 2.5992243 2.4320514 1 13
4.0931249 0.86852771 -0.21928766 100 6
15.698936 3.3283234 3.7049439 5 14
4.0927038 0.86619931 -0.073020868 100 7
1.4559309 0.3049559 -0.39858136 7 0
4.1024876 0.85855007 0.073160492 17 8
1.6633908 0.34750092 -0.39231464 7 1
3.9493482 0.82434368 0.21143727 25 9
1.9776411 0.41242999 -0.39268494 6 2
3.8775902 0.80795336 0.34653121 31 10
2.4387536 0.5072611 -0.39452776 6 3
4.0251255 0.83649588 0.50478286 38 11
3.1350856 0.6509583 -0.39315054 7 4
11.796651 2.447262 1.9081879 3 12
4.1029387 0.84967935 -0.36657706 91 5
12.392648 2.5641372 2.4599097 5 13
4.0937052 0.84627515 -0.21907835 100 6
15.614998 3.2251918 3.6810989 4 14
4.0971832 0.84475756 -0.073020868 100 7
1.4575078 0.29732826 -0.39858136 7 0
4.0932107 0.83426362 0.07291615 19 8
1.6842238 0.34296551 -0.39681366 6 1
3.9614401 0.80524457 0.21185598 24 9
1.9836214 0.40285158 -0.39344814 6 2
3.8798151 0.78724259 0.34635693 33 10
2.4432256 0.49530426 -0.39484066 5 3
4.0080485 0.81107742 0.50210178 55 11
3.150126 0.6368925 -0.39461297 7 4
35.906162 7.2530036 5.8018422 5 12
4.1032805 0.82811272 -0.36622843 93 5
12.561795 2.5306237 2.4908209 5 13
4.0980797 0.82483035 -0.21907835 100 6
15.608747 3.1387677 3.6757002 4 14
4.0896435 0.82164711 -0.072811447 100 7
11.75271 2.3590941 3.2119446 7 15
1.4438856 0.28668338 -0.39444023 6 0
4.0857544 0.8104831 0.072706729 21 8
1.6898196 0.33490053 -0.39771348 6 1
3.9615457 0.78440893 0.21164663 25 9
1.9837091 0.39242515 -0.39306656 5 2
3.864337 0.76305878 0.34461379 36 10
2.4341574 0.48021039 -0.39296341 5 3
4.0237875 0.79308295 0.50356412 49 11
3.1610997 0.62247527 -0.39558792 8 4
35.98241 7.072515 5.8080997 5 12
4.0977855 0.8046965 -0.36535689 97 5
4.1022024 0.80407691 -0.21907835 100 6
18.647961 3.6518266 4.3869953 1 14
4.0938897 0.80022198 -0.072811447 100 7
1.4491117 0.28010461 -0.39547554 6 0
4.0701704 0.78600067 0.072357684 19 8
1.6992041 0.32752317 -0.3995131 6 1
3.969522 0.76440859 0.21185598 31 9
1.9838085 0.38166282 -0.39268494 6 2
3.8622801 0.74236101 0.34409088 37 10
2.4288785 0.46597075 -0.39171195 5 3
4.0259352 0.7716313 0.5033204 39 11
3.1643157 0.60591483 -0.39558792 8 4
36.561005 6.9942393 5.8957033 5 12
4.0960717 0.78210795 -0.36483395 90 5
4.1181278 0.78482962 -0.21970637 100 6
11.3697 2.1627221 2.6719685 1 14
4.0901647 0.7772814 -0.072671816 100 7
1.450606 0.27225986 -0.39547554 7 0
4.092052 0.76728559 0.072671816 32 8
1.6817414 0.31503335 -0.39501405 6 1
3.9813223 0.7450847 0.21227466 31 9
1.9954939 0.3727259 -0.39459303 6 2
3.8760331 0.72328007 0.34496242 40 10
2.4274011 0.45252237 -0.39108619 6 3
4.014308 0.74763274 0.50137055 37 11
3.1558375 0.58660984 -0.39412549 7 4
4.1059871 0.76174194 -0.36535689 97 5
16.089712 2.9820554 3.1807859 1 13
4.102674 0.75890547 -0.21865964 94 6
11.434526 2.113075 2.684566 1 14
4.1059771 0.75803441 -0.072881252 100 7
1.4596137 0.26604691 -0.39754605 6 0
4.0802746 0.74298269 0.072392583 22 8
1.6795334 0.30552566 -0.39411426 7 1
3.9754691 0.72174829 0.2117513 34 9
1.9877595 0.36052033 -0.39268494 6 2
3.8797667 0.70297658 0.34496242 43 10
2.4433439 0.44226891 -0.3932763 6 3
4.0261083 0.72731537 0.5023455 37 11
3.1510515 0.56866723 -0.39315054 7 4
5.5599399 1.002395 0.89480525 2 12
4.1197233 0.74199975 -0.36622843 91 5
5.5186114 0.991961 1.0899011 7 13
4.1006942 0.73635405 -0.21834564 97 6
5.5203547 0.99028534 1.2948182 6 14
4.1020169 0.73511368 -0.072741628 100 7
5.5242 0.98898494 1.5037388 43 15
1.4571823 0.25772697 -0.39651078 6 0
3.5150118 0.62105751 0.062305093 57 8
1.6964626 0.29943788 -0.39771348 7 1
3.9751382 0.70092326 0.21154197 28 9
1.9856918 0.34977424 -0.3919217 5 2
3.8833947 0.68265021 0.34496242 28 10
2.4631362 0.43254533 -0.39609212 5 3
4.0297379 0.70692742 0.5023455 35 11
3.161711 0.5540812 -0.39412549 7 4
5.5417619 0.9691878 0.89105082 70 12
3.4915752 0.61000496 -0.31010011 73 5
5.544836 0.9677282 1.0940988 61 13
5.5310559 0.96333396 1.296168 43 14
3.4714184 0.60336399 -0.061502282 148 7
5.523592 0.95905453 1.5021858 66 15
1.4546599 0.24969572 -0.39547554 7 0
3.5141683 0.60258204 0.062235285 119 8
1.6980071 0.29055169 -0.39771348 6 1
3.9905655 0.68212032 0.21216999 22 9
1.995237 0.34069392 -0.39344814 5 2
3.8848364 0.66265023 0.3447881 24 10
2.4497883 0.41699034 -0.39358914 5 3
4.0412121 0.6871466 0.5033204 35 11
3.1723969 0.53884965 -0.39510044 7 4
5.5134883 0.93550754 0.88573205 68 12
3.4809701 0.58938771 -0.30887994 68 5
5.5130472 0.93246335 1.086848 58 13
3.4936228 0.59027398 -0.18568799 61 6
5.5302591 0.93338913 1.2948182 56 14
3.4765027 0.58550942 -0.061537188 150 7
5.5094872 0.92691678 1.4970094 90 15
1.4597589 0.24270852 -0.39651078 7 0
1.6937377 0.28070009 -0.39636377 6 1
3.9980233 0.66186821 0.21237932 13 9
1.9931195 0.3296023 -0.39268494 5 2
3.886287 0.64197683 0.34461379 16 10
2.4324474 0.40094569 -0.39046046 6 3
4.0310435 0.66372132 0.50161427 28 11
3.1830101 0.52351993 -0.3960754 7 4
5.5300059 0.90854943 0.88760924 76 12
5.5314155 0.90580708 1.0895194 82 13
3.5065207 0.57358664 -0.18621135 18 6
5.525455 0.90284795 1.2925688 51 14
5.5199852 0.89898729 1.4985623 84 15
1.4495658 0.23322119 -0.39340496 7 0
1.6836393 0.26997715 -0.39366436 6 1
3.9284654 0.62923926 0.20850646 8 9
1.9948181 0.31916058 -0.39268494 5 2
3.8974643 0.62287849 0.34531105 16 10
2.4423168 0.38944671 -0.39171195 5 3
4.0050573 0.63792336 0.49795815 44 11
3.1778653 0.50559998 -0.39510044 7 4
5.5288358 0.87864846 0.88667065 55 12
3.5046616 0.55571216 -0.31044877 13 5
5.5225101 0.87467903 1.086848 48 13
3.5055304 0.55459571 -0.186002 20 6
5.5455046 0.87633961 1.296168 33 14
1.469856 0.22859667 -0.39858136 7 0
3.4975121 0.54331899 0.061781518 28 8
1.6888813 0.26175463 -0.39456415 5 1
3.4777441 0.5383836 0.18443193 68 9
1.998402 0.30901209 -0.39306656 5 2
3.9164248 0.60489529 0.34670553 7 10
2.4560359 0.37845927 -0.39358914 5 3
4.006381 0.61664164 0.49771443 49 11
3.172621 0.4877468 -0.39412549 7 4
3.5035844 0.53675026 -0.31010011 18 5
3.5103607 0.53653443 -0.18610668 22 6
3.4971313 0.53263885 -0.061746612 23 7
5.6054916 0.85275394 1.5192679 1 15
1.4595318 0.21943134 -0.39547554 7 0
3.508127 0.52679849 0.061921138 20 8
1.6998205 0.2546472 -0.39681366 6 1
3.476474 0.52018428 0.18422259 72 9
1.9941155 0.29802242 -0.3919217 5 2
3.7519386 0.56006318 0.33188906 64 10
2.4579201 0.36602294 -0.39358914 5 3
4.0055242 0.59577286 0.49722698 16 11
3.1750493 0.47168201 -0.39412549 7 4
3.5023143 0.51842612 -0.30975151 17 5
3.5150073 0.51905125 -0.18621135 17 6
5.5850811 0.82373726 1.3033664 0 14
3.495826 0.5143488 -0.061676804 21 7
5.6212039 0.82605821 1.5223737 1 15
1.4644846 0.21234044 -0.39651078 7 0
3.5068789 0.5078491 0.06185133 27 8
1.7049881 0.2463005 -0.39771348 6 1
3.4850805 0.50282955 0.18453661 74 9
1.9956484 0.28757787 -0.3919217 6 2
3.7528477 0.54012609 0.33171475 42 10
2.4519815 0.35202625 -0.39233768 5 3
4.0085888 0.57479131 0.49722698 4 11
3.1774757 0.45505059 -0.39412549 8 4
3.4892015 0.49782914 -0.308357 12 5
3.5216317 0.50120199 -0.18642069 20 6
5.5970349 0.79557884 1.305166 0 14
3.4984713 0.49603713 -0.061676804 18 7
5.5871968 0.79119623 1.5120209 1 15
1.4540966 0.20306617 -0.39340496 7 0
3.4956264 0.48754612 0.061606996 26 8
1.6927022 0.23578538 -0.39456415 5 1
3.491622 0.48512405 0.18474595 74 9
2.0010161 0.27766412 -0.39268494 6 2
3.7378628 0.5180068 0.33014596 36 10
2.4498186 0.33906913 -0.39171195 5 3
5.694818 0.78617024 0.70586729 1 11
3.1916134 0.44003493 -0.39558792 8 4
3.5035195 0.48179206 -0.30940288 19 5
3.5222285 0.48248601 -0.18631603 22 6
5.6088467 0.76732033 1.3069657 0 14
3.5009372 0.47832292 -0.061676804 21 7
5.5911298 0.76290858 1.5120209 1 15
1.4627986 0.19647823 -0.39547554 7 0
3.504077 0.47003514 0.06171171 33 8
1.691982 0.22666021 -0.39411426 6 1
3.497992 0.46797428 0.18495528 75 9
