# .PCD v0.7 - Point Cloud Data file format
VERSION 0.7
FIELDS x y z intensity ring
SIZE 4 4 4 4 2
TYPE F F F F U
COUNT 1 1 1 1 1
WIDTH 1253
HEIGHT 1
VIEWPOINT 0 0 0 1 0 0 0
POINTS 1253
DATA ascii
-3.220865 -4.3622966 1.054029 82 13
-2.0196164 -2.7343423 -0.17815161 66 6
-3.2286744 -4.3696804 1.2543271 58 14
-2.0235131 -2.7366188 -0.05940799 66 7
-3.2305329 -4.3674097 1.4555984 77 15
-0.83391631 -1.1228693 -0.37476999 7 0
-2.0595312 -2.77215 0.060280614 66 8
-0.95109379 -1.2792491 -0.36801991 7 1
-2.8809059 -3.8734908 0.25299203 89 9
-1.1273832 -1.5152587 -0.36711654 7 2
-3.2570877 -4.3760915 0.47726485 74 10
-1.3557991 -1.8202701 -0.35948643 5 3
-3.2604876 -4.3758745 0.67003769 81 11
-1.6881632 -2.2648451 -0.3468402 7 4
-3.2708471 -4.3865809 0.86664706 70 12
-2.0470626 -2.7433469 -0.29946712 68 5
-3.2683239 -4.3784113 1.062043 100 13
-2.0410759 -2.7333317 -0.17877965 68 6
-3.2585068 -4.362083 1.2570266 58 14
-2.0485904 -2.7404008 -0.059722137 67 7
-3.271868 -4.3751874 1.4638805 74 15
-0.82586497 -1.099949 -0.36855832 8 0
-2.081223 -2.7709219 0.060490038 67 8
-0.96012056 -1.2773672 -0.36891973 7 1
-2.9023483 -3.8599503 0.25309673 74 9
-1.1187795 -1.4873698 -0.36177388 7 2
-3.2907374 -4.3733063 0.47883365 90 10
-1.3581817 -1.803678 -0.35760921 5 3
-3.3024647 -4.3841119 0.6739375 90 11
-1.6999991 -2.2559748 -0.3468402 7 4
-3.298526 -4.3757043 0.86789852 82 12
-2.0721982 -2.7469056 -0.30103594 69 5
-3.3042135 -4.3784757 1.0662408 75 13
-2.0697999 -2.7417357 -0.1800357 67 6
-3.3000932 -4.369843 1.264225 57 14
-2.0629108 -2.7296369 -0.059722137 68 7
-3.2993917 -4.364161 1.4659511 75 15
-0.83394891 -1.0986874 -0.36959362 7 0
-2.1041684 -2.7711349 0.060734376 62 8
-0.96893096 -1.2755949 -0.36981952 7 1
-2.9430666 -3.8717308 0.25487614 69 9
-1.132494 -1.4893049 -0.36368197 6 2
-3.3280654 -4.3750448 0.48092538 58 10
-1.3744713 -1.8062124 -0.35948643 5 3
-3.2953086 -4.3272772 0.66784412 30 11
-1.7165995 -2.2533588 -0.34781513 7 4
-3.2734995 -4.295527 0.85538375 24 12
-2.0848665 -2.7347977 -0.30086163 62 5
-3.2842245 -4.3049235 1.0525025 45 13
-2.0986674 -2.7499137 -0.18129177 66 6
-3.3702295 -4.4144611 1.282221 31 14
-2.0888374 -2.7350531 -0.060071182 67 7
-3.3765607 -4.4195552 1.4902802 35 15
-0.84439445 -1.1004362 -0.37166417 8 0
-2.1259546 -2.7695968 0.060943801 61 8
-0.98271811 -1.2797778 -0.37251896 7 1
-2.9820921 -3.8821278 0.25655088 74 9
-1.1352323 -1.477327 -0.3621555 6 2
-3.2853427 -4.2722716 0.47151256 48 10
-1.371865 -1.783334 -0.35635775 5 3
-3.3050618 -4.2948108 0.66540664 58 11
-1.7304044 -2.2477877 -0.3483026 6 4
-3.3019729 -4.2861524 0.85694808 48 12
-2.1076703 -2.7348909 -0.30208179 64 5
-3.310766 -4.2944651 1.054029 54 13
-2.1174378 -2.7455823 -0.18171045 66 6
-3.3901484 -4.3942609 1.2813212 22 14
-2.1104615 -2.7335758 -0.060280614 66 7
-3.3807623 -4.3773518 1.481998 33 15
-0.8475858 -1.0930949 -0.37062889 8 0
-2.1460733 -2.7667017 0.061118327 55 8
-0.97267622 -1.2530634 -0.3662203 7 1
-2.9693034 -3.8238676 0.25372472 26 9
-1.1525869 -1.4837663 -0.36520842 6 2
-3.3130367 -4.2634544 0.4723841 60 10
-1.3823963 -1.7776862 -0.35667065 6 3
-3.3165338 -4.2633457 0.66321301 57 11
-1.7494653 -2.2480962 -0.34976503 7 4
-3.3248379 -4.2709441 0.857261 32 12
-2.1403284 -2.7473934 -0.30469647 71 5
-3.3404479 -4.2863617 1.0563186 31 13
-2.1366963 -2.7407589 -0.18212914 67 6
-3.393497 -4.3497334 1.2736728 21 14
-2.132127 -2.7319465 -0.060490038 66 7
-3.3822362 -4.332181 1.4726803 29 15
-0.86063969 -1.0976146 -0.37373474 8 0
-2.1819925 -2.7817976 0.06171171 63 8
-0.98042679 -1.2494866 -0.36667022 7 1
-3.047245 -3.8821087 0.25864434 65 9
-1.1630232 -1.4805964 -0.36597168 6 2
-3.3545218 -4.2689652 0.4749988 30 10
-1.3929061 -1.7719761 -0.35698348 5 3
-3.3670332 -4.2818122 0.66881901 36 11
-1.7468716 -2.219878 -0.3468402 7 4
-3.4004369 -4.3196349 0.87071437 24 12
-2.1645455 -2.748672 -0.30609095 68 5
-3.3968625 -4.3119946 1.067004 28 13
-2.1564403 -2.7354317 -0.18254784 66 6
-3.3860574 -4.2936521 1.2624253 22 14
-2.163743 -2.7427242 -0.060978711 63 7
-3.3900638 -4.2941065 1.4659511 31 15
-0.85917497 -1.0840094 -0.37062889 8 0
-2.2039819 -2.7797363 0.061921138 62 8
-0.99179983 -1.250443 -0.36846983 7 1
-3.0768967 -3.8765152 0.25937703 69 9
-1.1658766 -1.4683362 -0.36444521 6 2
-1.4205983 -1.7878575 -0.36167651 6 3
-3.3963284 -4.2713003 0.67003769 30 11
-1.7510564 -2.2013798 -0.34537774 7 4
-3.3959489 -4.2677646 0.86383122 22 12
-2.1875939 -2.7482121 -0.30731115 69 5
-3.3993473 -4.2674475 1.0605165 24 13
-2.1806912 -2.7365987 -0.18338521 67 6
-3.3878415 -4.2499585 1.254777 22 14
-2.1830602 -2.7376118 -0.061118327 70 7
-3.3900704 -4.2497091 1.4566337 32 15
-0.85759199 -1.0704498 -0.36752307 8 0
-2.2272604 -2.7790813 0.062165473 58 8
-1.0019902 -1.2497941 -0.36981952 7 1
-3.3076577 -4.1242051 0.27706659 14 9
-1.1683792 -1.4562912 -0.36291873 6 2
-3.0048766 -3.7426612 0.41991636 1 10
-1.410149 -1.7557528 -0.35667065 6 3
-3.0088494 -3.7449307 0.58984768 9 11
-1.7696375 -2.2017725 -0.3468402 7 4
-3.3848207 -4.2083654 0.85538375 18 12
-2.2094467 -2.7460349 -0.308357 69 5
-3.3962841 -4.2195988 1.0528841 22 13
-2.2095451 -2.744194 -0.18464127 67 6
-3.3897502 -4.2084746 1.2475786 21 14
-2.2023845 -2.7323711 -0.061257947 68 7
-3.3843842 -4.1973124 1.444728 34 15
-0.87272292 -1.078108 -0.37166417 7 0
-2.2450731 -2.7724349 0.062270187 58 8
-1.0146551 -1.2521006 -0.37206903 6 1
-3.0298681 -3.7375717 0.25215468 50 9
-1.1747516 -1.4486289 -0.36253712 6 2
-1.419322 -1.7483457 -0.35667065 6 3
-3.4088464 -4.197577 0.66394424 39 11
-1.7811419 -2.192476 -0.3468402 7 4
-3.3998482 -4.1835146 0.85381943 20 12
-2.2288232 -2.7406113 -0.30905426 69 5
-3.4084182 -4.1895757 1.0498312 28 13
-2.2352295 -2.7465296 -0.18558332 72 6
-3.4166613 -4.196713 1.2493782 25 14
-2.225502 -2.7316544 -0.061502282 67 7
-3.4148586 -4.1900163 1.4483514 40 15
-0.87346244 -1.0675431 -0.36959362 8 0
-2.2709579 -2.7745683 0.062584333 55 8
-1.0125531 -1.236218 -0.36891973 7 1
-3.1025612 -3.7865422 0.25655088 14 9
-1.1872989 -1.4485314 -0.36406359 6 2
-1.4334692 -1.7469982 -0.35792211 6 3
-3.4244792 -4.1719999 0.66272557 31 11
-1.7900776 -2.180052 -0.34635273 7 4
-3.4392607 -4.1870251 0.85819954 24 12
-2.2595894 -2.7489128 -0.3113203 68 5
-3.4440248 -4.1883521 1.054029 31 13
-2.2571929 -2.7440426 -0.18621135 75 6
-3.4509704 -4.1938138 1.2538772 26 14
-2.2562997 -2.7400317 -0.061956044 70 7
-3.4551747 -4.1944456 1.4561161 44 15
-0.8864271 -1.0718873 -0.37269944 7 0
-2.3096719 -2.7919154 0.063247517 61 8
-1.0165267 -1.2278969 -0.36801991 7 1
-3.0242536 -3.6518006 0.24849114 9 9
-1.1998769 -1.4483423 -0.36559007 6 2
-3.4465919 -4.1588202 0.47255844 18 10
-1.4325085 -1.7273047 -0.35541913 6 3
-3.4576848 -4.1677618 0.6649192 34 11
-1.7989324 -2.167594 -0.34586522 7 4
-3.47754 -4.1887183 0.86226684 22 12
-2.2854111 -2.7508361 -0.3128891 64 5
-3.4834752 -4.1914001 1.0593716 20 13
-2.2791898 -2.7414021 -0.18683939 75 6
-3.49282 -4.1996593 1.2610756 10 14
-2.278291 -2.7374027 -0.062165473 68 7
-3.495631 -4.1985655 1.4638805 40 15
-0.88954943 -1.0642668 -0.37166417 8 0
-2.3332384 -2.7905223 0.063491859 48 8
-1.0279441 -1.228536 -0.36981952 7 1
-3.5009866 -4.1826816 0.28585902 29 9
-1.1961007 -1.4284924 -0.3621555 6 2
-3.5067003 -4.1865382 0.47778779 30 10
-1.4542227 -1.734919 -0.35854784 6 3
-3.4998674 -4.1739373 0.66881901 16 11
-1.8153596 -2.1642292 -0.3468402 7 4
-3.5578332 -4.2400603 0.8766588 12 12
-2.3074701 -2.747987 -0.31393498 64 5
-3.8602049 -4.5955248 1.1666063 1 13
-2.3063617 -2.7447212 -0.1878861 72 6
-2.2977414 -2.7315574 -0.062305093 68 7
-3.5275171 -4.1920309 1.4680218 42 15
-0.88762975 -1.0507398 -0.36855832 8 0
-2.3787951 -2.8149233 0.064329572 66 8
-1.0305878 -1.2186728 -0.36846983 6 1
-3.533159 -4.1764913 0.2866964 29 9
-1.2035635 -1.4222105 -0.3621555 6 2
-3.5285735 -4.168119 0.47778779 30 10
-1.4569023 -1.719745 -0.35698348 6 3
-1.8343688 -2.163779 -0.3483026 8 4
-3.5735965 -4.213841 0.87509453 24 12
-2.3282726 -2.7434633 -0.31480655 71 5
-3.6834595 -4.3387794 1.1063106 1 13
-2.3336298 -2.7478313 -0.18893282 75 6
-2.3249643 -2.7347243 -0.062654138 63 7
-3.556927 -4.1823335 1.4711276 40 15
-0.89061016 -1.0431397 -0.36752307 10 0
-2.4051893 -2.8161149 0.064643718 61 8
-1.0420192 -1.2191852 -0.37026942 6 1
-3.5809364 -4.1882958 0.28878984 29 9
-1.2148221 -1.4203649 -0.36330032 6 2
-3.5658929 -4.1677527 0.4798795 26 10
-1.4633174 -1.7090923 -0.35635775 5 3
-3.5872893 -4.1883192 0.67710614 13 11
-1.8456731 -2.1541448 -0.3483026 7 4
-3.5827558 -4.1800742 0.87196583 36 12
-2.3568735 -2.7478702 -0.31672394 73 5
-3.5821199 -4.1749063 1.0692936 35 13
-2.3609941 -2.75073 -0.18997954 73 6
-3.8020937 -4.428154 1.3474568 0 14
-2.3535872 -2.739197 -0.063038096 66 7
-3.5863318 -4.1724424 1.4742333 44 15
-0.89858413 -1.0413873 -0.36855832 8 0
-2.436888 -2.8231614 0.065097481 66 8
-1.0343758 -1.1974907 -0.3653205 8 1
-3.6184878 -4.187623 0.29004589 31 9
-1.2260939 -1.4184407 -0.36444521 6 2
-3.6215479 -4.1882105 0.4844116 30 10
-1.4670756 -1.6954321 -0.35510629 5 3
-3.615665 -4.1769848 0.67832482 28 11
-1.8517293 -2.1384485 -0.34732765 7 4
-3.63046 -4.1911197 0.87822318 44 12
-2.3842795 -2.7505469 -0.31846708 69 5
-3.634799 -4.1916919 1.0784526 54 13
-2.3832166 -2.7473826 -0.19060758 70 6
-3.8597124 -4.4479246 1.3596041 6 14
-2.3862526 -2.7479746 -0.063526757 65 7
-3.6284006 -4.1769419 1.4825156 42 15
-0.90402436 -1.0366681 -0.36855832 7 0
-2.4700396 -2.8314607 0.065586142 63 8
-1.0431945 -1.1949944 -0.3662203 7 1
-3.6535006 -4.1836638 0.2910926 31 9
-1.2335042 -1.4120013 -0.36444521 6 2
-3.6644049 -4.1931934 0.48720059 34 10
-1.4902371 -1.7040837 -0.35854784 6 3
-3.6531711 -4.1759238 0.68124968 28 11
-1.8629006 -2.1287239 -0.34732765 7 4
-3.6744754 -4.1973195 0.88354194 53 12
-2.4170287 -2.7590063 -0.32090744 75 5
-3.6735187 -4.1917968 1.0834136 63 13
-2.4067852 -2.7453794 -0.19134027 67 6
-3.861105 -4.4027472 1.3519558 15 14
-2.4124799 -2.7489688 -0.063840903 68 7
-3.6680641 -4.1782112 1.4897624 44 15
-0.91929424 -1.0438359 -0.37269944 8 0
-2.4983878 -2.8358612 0.0659701 59 8
-1.0619094 -1.2045 -0.37071934 7 1
-3.6923978 -4.1867304 0.29255801 31 9
-1.2299989 -1.3941787 -0.36139226 6 2
-3.6927631 -4.1841993 0.48824647 27 10
-1.4907013 -1.6878973 -0.35667065 6 3
-3.6945639 -4.1818247 0.68514949 28 11
-1.8680228 -2.1136451 -0.34635273 7 4
-3.6956723 -4.178668 0.88354194 53 12
-2.441045 -2.759099 -0.32230192 73 5
-3.7134767 -4.195847 1.0891378 69 13
-2.4338925 -2.7481139 -0.19238698 74 6
-3.8600783 -4.3568935 1.3438576 15 14
-2.4232323 -2.7341537 -0.063771099 71 7
-3.7025373 -4.1761365 1.4954566 44 15
-0.91465133 -1.0273041 -0.36855832 8 0
-2.5336459 -2.8447001 0.066493668 57 8
-1.0697073 -1.2001916 -0.37116924 6 1
-3.7336047 -4.187561 0.29402342 29 9
-1.2322968 -1.3816428 -0.35986578 6 2
-3.7180004 -4.1671324 0.4885951 25 10
-1.4984959 -1.6783338 -0.35635775 6 3
-3.7422609 -4.1899037 0.68978053 31 11
-1.8820767 -2.1064675 -0.3468402 7 4
-3.7366607 -4.1792269 0.88792211 63 12
-2.4585936 -2.7488215 -0.32265055 73 5
-3.7505238 -4.1917887 1.0933356 63 13
-2.4660451 -2.7542491 -0.19374773 70 6
-3.8627918 -4.3127193 1.3366592 14 14
-2.4513338 -2.7358963 -0.064120144 70 7
-3.7379718 -4.1704288 1.5006329 46 15
-0.92019606 -1.0223404 -0.36855832 8 0
-2.531605 -2.8116319 0.066039905 52 8
-1.072064 -1.1902304 -0.36981952 7 1
-3.7762649 -4.1895528 0.2955935 26 9
-1.2502717 -1.3866199 -0.36291873 6 2
-3.7645128 -4.1735849 0.49173269 25 10
-1.5006467 -1.6631312 -0.3547934 6 3
-3.7801075 -4.1879358 0.69270545 31 11
-1.8961073 -2.0992 -0.34732765 7 4
-3.7651134 -4.1669335 0.88948649 31 12
-2.4889846 -2.7536476 -0.32474229 73 5
-3.7737377 -4.1735492 1.0937172 37 13
-2.4924927 -2.7546284 -0.19468978 68 6
-3.7846241 -4.1811867 1.3020166 26 14
-2.4830744 -2.7422938 -0.064573906 67 7
-3.7753193 -4.1679816 1.5068446 46 15
-0.93575633 -1.0291042 -0.37269944 8 0
-2.5592587 -2.813575 0.066388957 44 8
-1.0675826 -1.1732579 -0.3662203 7 1
-3.8189366 -4.1940145 0.29726827 33 9
-1.2572743 -1.3802738 -0.36291873 6 2
-3.8124273 -4.1839314 0.4952189 27 10
-1.5143681 -1.6613541 -0.35604486 6 3
-3.8052692 -4.1731496 0.69343662 30 11
-1.9093839 -2.092509 -0.34781513 7 4
-3.8061314 -4.1697078 0.89417946 25 12
-2.5190115 -2.7586703 -0.32683402 73 5
-3.8159993 -4.177587 1.0998231 28 13
-2.5104454 -2.7463999 -0.19500379 68 6
-3.814944 -4.1720433 1.305166 39 14
-2.5144675 -2.748873 -0.065027662 66 7
-3.8237536 -4.1787496 1.517715 43 15
-0.93833929 -1.0215094 -0.37166417 8 0
-2.5991743 -2.8285623 0.067052148 60 8
-1.0737109 -1.1676521 -0.3662203 7 1
-3.8996093 -4.2393093 0.3018738 15 9
-1.2695616 -1.3796713 -0.36444521 6 2
-4.0170693 -4.3639426 0.51892531 17 10
-1.5203693 -1.6504966 -0.35541913 6 3
-3.9252672 -4.2597337 0.71122956 4 11
-1.9172601 -2.0798986 -0.34732765 7 4
-3.9463682 -4.2796364 0.92202479 25 12
-2.5428801 -2.7556922 -0.32805422 68 5
-3.9536734 -4.2830563 1.1330239 3 13
-2.5324445 -2.7424619 -0.19563182 71 6
-3.9603086 -4.2872391 1.3474568 41 14
-2.5437579 -2.7518218 -0.06541162 68 7
-3.8836179 -4.1998034 1.5327265 44 15
-0.94630355 -1.0194141 -0.37269944 8 0
-2.6180308 -2.8193104 0.067156859 56 8
-1.0877693 -1.1705796 -0.36891973 8 1
-4.2875485 -4.6123362 0.33003056 52 9
-1.2567145 -1.3514395 -0.35872093 6 2
-4.2583442 -4.5777168 0.54698944 23 10
-1.5397583 -1.6540802 -0.35792211 6 3
-3.9569857 -4.2492933 0.71293575 10 11
-1.93083 -2.0727363 -0.34781513 7 4
-3.8542538 -4.1360745 0.89543104 23 12
-2.5667851 -2.7525401 -0.32927439 64 5
-3.8581975 -4.135963 1.0994414 24 13
-2.5631211 -2.7466869 -0.19688788 71 6
-3.8483937 -4.1225677 1.3020166 31 14
-2.5567667 -2.7370036 -0.065376714 66 7
-3.8646655 -4.1356554 1.5166796 38 15
-0.93841124 -1.0003556 -0.36752307 8 0
-2.6464403 -2.8201458 0.067505911 56 8
-1.1018877 -1.1733912 -0.37161914 8 1
-4.2883911 -4.5650778 0.32825115 24 9
-1.2785621 -1.3605783 -0.36291873 6 2
-4.2754316 -4.5480981 0.54611784 14 10
-1.5402766 -1.6373625 -0.35604486 6 3
-3.901638 -4.1461134 0.69904256 16 11
-1.9362141 -2.0568163 -0.3468402 7 4
-3.8772111 -4.1172752 0.89574385 17 12
-2.5948267 -2.7535625 -0.33101749 56 5
-3.9000001 -4.1371336 1.1051657 15 13
-2.6007612 -2.7579322 -0.19866732 72 6
-3.904695 -4.1392164 1.3137141 20 14
-2.5861611 -2.7395749 -0.065760665 68 7
-3.9565644 -4.1898046 1.5441145 33 15
-0.94895244 -1.0010365 -0.36959362 8 0
-2.6446586 -2.7888381 0.067087047 59 8
-1.0999678 -1.1591244 -0.36891973 7 1
-3.8997133 -4.108005 0.29684958 24 9
-1.2775571 -1.3453232 -0.36062902 6 2
-3.8998685 -4.105298 0.49539325 21 10
-1.548829 -1.6292751 -0.35604486 6 3
-3.893198 -4.0939813 0.69368041 16 11
-1.9633747 -2.06391 -0.34976503 7 4
-3.9872308 -4.1899319 0.91608036 12 12
-2.6147039 -2.7457106 -0.33171475 51 5
-4.0340033 -4.2346406 1.13684 13 13
-2.6261895 -2.7558434 -0.19950469 74 6
-4.0984254 -4.299263 1.3713017 16 14
-2.6197948 -2.7462528 -0.066249333 70 7
-4.4212384 -4.6330328 1.7159703 54 15
-0.95685369 -0.99884391 -0.37062889 8 0
-2.6619916 -2.7778404 0.067156859 44 8
-1.0898362 -1.1364707 -0.36352089 8 1
-3.9515879 -4.1192379 0.29915234 15 9
-1.2927394 -1.347115 -0.36291873 6 2
-3.9502864 -4.115005 0.49905378 17 10
-1.5546012 -1.6182946 -0.35541913 6 3
-3.9530942 -4.1136169 0.70050502 15 11
-1.9659003 -2.0450146 -0.3483026 7 4
-4.2692671 -4.439528 0.97552538 12 12
-2.6428602 -2.7463384 -0.33345786 37 5
-4.113306 -4.2728653 1.152868 13 13
-2.6544368 -2.7564418 -0.20055141 68 6
-4.1398087 -4.2973924 1.3776002 17 14
-2.6632826 -2.7627313 -0.066982336 70 7
-4.4829841 -4.6487575 1.7304642 92 15
-0.96744496 -0.99937266 -0.37269944 8 0
-2.8837759 -2.9779053 0.072357684 48 8
-1.1039084 -1.1391457 -0.3662203 8 1
-3.992564 -4.1185679 0.30061778 15 9
-1.3107094 -1.3516028 -0.36597168 6 2
-4.0161695 -4.140028 0.50463176 17 10
-1.5658052 -1.6129669 -0.35604486 6 3
-4.0105362 -4.1298881 0.70684224 15 11
-1.9655154 -2.0233028 -0.34635273 7 4
-4.2869477 -4.4114461 0.97427392 12 12
-2.6683156 -2.7438898 -0.33485237 7 5
-4.1985941 -4.3160024 1.1704224 15 13
-2.9251306 -3.005877 -0.21981104 52 6
-4.1731272 -4.286829 1.3811995 18 14
-2.9274831 -3.0051451 -0.073230296 52 7
-4.5247908 -4.6432076 1.7371935 99 15
-0.98347187 -1.0053411 -0.37684056 8 0
-2.9496782 -3.0142179 0.073614255 40 8
-1.1207657 -1.1444885 -0.36981952 7 1
-4.0629926 -4.147542 0.30428126 15 9
-1.2957824 -1.322286 -0.35986578 6 2
-4.0740557 -4.1559343 0.50916386 17 10
-1.574229 -1.6047465 -0.35604486 6 3
-4.0918899 -4.1697578 0.71732301 21 11
-1.967739 -2.0044837 -0.34489027 7 4
-4.2823057 -4.3607512 0.96801656 12 12
-2.6686816 -2.7156699 -0.33310926 7 5
-4.2789397 -4.3527627 1.1864504 13 13
-2.9632354 -3.0133052 -0.22148579 52 6
-4.2324147 -4.3024282 1.3933468 13 14
-2.9544005 -3.0011766 -0.073509537 49 7
-4.581573 -4.6524868 1.7496167 100 15
-0.96699208 -0.97819585 -0.36855832 8 0
-2.9752626 -3.0086844 0.073858589 40 8
-1.1212598 -1.1330639 -0.36801991 7 1
-4.1183748 -4.1602783 0.30679342 15 9
-1.310977 -1.3238531 -0.3621555 6 2
-4.132216 -4.1713476 0.5136959 17 10
-1.5909544 -1.604899 -0.35792211 6 3
-4.1709766 -4.2060666 0.72731632 34 11
-1.9921875 -2.0082464 -0.34732765 6 4
-4.2842093 -4.3172364 0.96332359 10 12
-2.6800561 -2.6988323 -0.3327606 7 5
-4.2989054 -4.3275118 1.1856872 11 13
-3.0029051 -3.0218327 -0.22326522 51 6
-4.285109 -4.3106136 1.4032447 10 14
-2.9855871 -3.001261 -0.073893487 51 7
-4.6276727 -4.6503439 1.757899 99 15
-0.96937007 -0.97038573 -0.36752307 8 0
-2.9994571 -3.0015516 0.074068017 37 8
-1.1354452 -1.1354452 -0.37071934 7 1
-4.1951904 -4.1937261 0.31087559 15 9
-1.3192792 -1.3183587 -0.36253712 7 2
-4.19065 -4.186264 0.51822799 14 10
-1.5895495 -1.5867778 -0.35573202 6 3
-4.2140188 -4.2052026 0.73097235 31 11
-2.0082965 -2.0033956 -0.3483026 6 4
-4.2018485 -4.1901317 0.93985838 19 12
-2.6955614 -2.6861691 -0.33293492 6 5
-4.2088437 -4.1927128 1.1547761 18 13
-3.0399141 -3.0272079 -0.22483528 52 6
-4.2192302 -4.2001286 1.3744509 21 14
-3.022526 -3.006742 -0.074417062 45 7
-4.6834655 -4.6573801 1.7698047 94 15
-0.98541731 -0.97617358 -0.37166417 8 0
-3.0392869 -3.0097258 0.074661396 34 8
-1.1413749 -1.1294843 -0.37071934 7 1
-4.2596874 -4.2138414 0.31401578 18 9
-1.3219761 -1.3072916 -0.36139226 6 2
-4.2578545 -4.2090869 0.52380598 17 10
-1.5922147 -1.5728804 -0.35448053 6 3
-4.2529297 -4.1998181 0.73389727 34 11
-2.021584 -1.9956422 -0.34879011 6 4
-4.2588806 -4.2027612 0.94768006 25 12
-2.7166822 -2.6790135 -0.33380648 7 5
-4.2600985 -4.1995611 1.1627901 28 13
-3.0628364 -3.0182583 -0.22535865 49 6
-4.2800355 -4.2162719 1.3870482 29 14
-3.0596039 -3.0119174 -0.074940629 42 7
-4.7311935 -4.6558304 1.7786045 88 15
-0.99327397 -0.97370535 -0.37269944 8 0
-3.0721431 -3.0105655 0.075080253 35 8
-1.1361344 -1.1125853 -0.36712012 7 1
-4.465806 -4.3717132 0.32751846 28 9
-1.340028 -1.3113369 -0.36444521 6 2
-4.7184982 -4.615859 0.57749397 34 10
-1.604666 -1.5686647 -0.35541913 7 3
-4.777452 -4.6686358 0.82018077 39 11
-2.0263257 -1.9794809 -0.34781513 6 4
-4.7811289 -4.6689701 1.0584357 71 12
-2.7235429 -2.6577942 -0.33293492 7 5
-4.7935662 -4.6762152 1.301699 57 13
-3.0957568 -3.0189135 -0.22661473 49 6
-4.7834711 -4.6631069 1.5422645 61 14
-3.092521 -3.0126007 -0.075359493 42 7
-4.7845721 -4.6592975 1.789475 96 15
-0.99835861 -0.96849132 -0.37269944 8 0
-3.1151385 -3.02089 0.075743444 33 8
-1.1335478 -1.0984842 -0.36442071 9 1
-4.8314867 -4.6804013 0.35253504 73 9
-1.3327727 -1.2906448 -0.36062902 6 2
-4.8284936 -4.6742363 0.58795261 48 10
-1.617117 -1.5643613 -0.35635775 7 3
-4.8332248 -4.6739168 0.82554299 40 11
-2.033808 -1.9660847 -0.34732765 7 4
-4.8282385 -4.6658344 1.0634416 78 12
-2.734555 -2.6407297 -0.33258632 7 5
-4.8547106 -4.6865034 1.3116212 77 13
-3.1330793 -3.0234661 -0.22818479 46 6
-4.833066 -4.6623507 1.5503626 59 14
-3.1197701 -3.0074694 -0.075638726 42 7
-4.8395052 -4.6636734 1.8008629 94 15
-0.9950543 -0.9552235 -0.36959362 8 0
-3.1395707 -3.0128446 0.075952873 33 8
-1.158975 -1.1114173 -0.37071934 8 1
-1.3508519 -1.2945157 -0.36368197 6 2
-4.8773599 -4.6723213 0.59091592 63 10
-1.6252856 -1.5558729 -0.35635775 7 3
-4.8877487 -4.6773682 0.83066154 61 11
-2.0498123 -1.9608973 -0.3483026 7 4
-4.886867 -4.6732559 1.0709505 91 12
-2.7469044 -2.6249986 -0.332412 6 5
-4.9089947 -4.6894979 1.319635 99 13
-3.1661994 -3.0235734 -0.22944085 43 6
-4.8954711 -4.6733112 1.56251 68 14
-3.1528363 -3.0076578 -0.076057591 42 7
-4.8890238 -4.6622667 1.8101805 100 15
-1.0028434 -0.9526611 -0.37062889 8 0
-3.1683528 -3.0087581 0.076267019 33 8
-1.1562973 -1.0972849 -0.36801991 7 1
-4.9410906 -4.6872826 0.35693124 89 9
-1.3490642 -1.2793193 -0.36139226 6 2
-4.9263387 -4.6700206 0.59387922 70 10
-1.6190693 -1.5337563 -0.35322908 7 3
-4.9237041 -4.662631 0.83261144 67 11
-2.0715837 -1.9610559 -0.35025251 6 4
-4.9241819 -4.6598244 1.0737664 76 12
-2.7736387 -2.6229012 -0.3339808 6 5
-4.9263477 -4.6569872 1.317727 70 13
-3.2023106 -3.0261581 -0.23090626 45 6
-4.9312048 -4.6583228 1.5661093 49 14
-3.188899 -3.0103254 -0.076546252 43 7
-4.9246092 -4.6472106 1.8143215 75 15
-1.0134481 -0.95269006 -0.37269944 8 0
-3.211751 -3.0181453 0.076930203 26 8
-1.1618359 -1.0914187 -0.36801991 8 1
-4.9728479 -4.6681814 0.35745463 78 9
-1.3614702 -1.2776122 -0.36291873 6 2
-4.9434576 -4.6373472 0.59300768 34 10
-1.6311344 -1.5295957 -0.35416767 6 3
-4.9379101 -4.6272855 0.83090526 52 11
-2.0702338 -1.939325 -0.3483026 7 4
-4.9542799 -4.6393785 1.0750178 48 12
-2.794152 -2.6156366 -0.33485237 6 5
-4.9563999 -4.6364937 1.3192534 43 13
-3.2297816 -3.0202627 -0.23174362 45 6
-4.9640698 -4.6404228 1.5688087 42 14
-3.2333164 -3.0214522 -0.077244349 43 7
-4.3876143 -4.0986819 1.6088192 43 15
-1.0155934 -0.94473916 -0.37166417 8 0
-3.2450829 -3.0176289 0.077349067 28 8
-1.1532618 -1.0720522 -0.36352089 9 1
-5.0008001 -4.6470308 0.35776863 49 9
-1.3707964 -1.2733771 -0.36368197 6 2
-5.0027161 -4.6439323 0.59719115 25 10
-1.6449127 -1.5264089 -0.35541913 6 3
-4.9903741 -4.6292338 0.83578002 46 11
-2.0771122 -1.9261218 -0.34781513 6 4
-5.0147266 -4.6469417 1.0828395 46 12
-2.7975781 -2.5914922 -0.33363217 6 5
-5.0230174 -4.6513667 1.3307021 45 13
-3.264081 -3.0215151 -0.23310436 43 6
-5.0161009 -4.6417084 1.5778067 41 14
-3.2652416 -3.0194166 -0.077628307 42 7
-5.021852 -4.6421518 1.8324389 56 15
-1.0232043 -0.94220394 -0.37269944 8 0
-3.2912107 -3.0296059 0.078082062 26 8
-1.1732014 -1.0791923 -0.36801991 7 1
-1.3629913 -1.2528956 -0.35986578 7 2
-4.414392 -4.0563984 0.52450323 2 10
-1.6601576 -1.5244553 -0.35698348 6 3
-2.0798552 -1.9085099 -0.34659645 6 4
-5.1022339 -4.680253 1.0966057 57 12
-2.8140452 -2.5795021 -0.3339808 6 5
-4.38726 -4.0201836 1.1566842 3 13
-3.3078396 -3.0300148 -0.23509313 39 6
-3.2928092 -3.0130775 -0.07790754 40 7
-5.1145101 -4.6783814 1.8572855 77 15
-1.0224119 -0.93162876 -0.37062889 8 0
-3.3247688 -3.0284903 0.078500926 24 8
-1.1759539 -1.0704108 -0.36712012 7 1
-5.1555505 -4.6911898 0.36530501 82 9
-1.3782463 -1.2536685 -0.3621555 6 2
-5.1505098 -4.6833177 0.60904431 100 10
-1.6666546 -1.5144142 -0.35667065 6 3
-5.1164556 -4.6474614 0.84869814 60 11
-2.1001072 -1.9069344 -0.3483026 6 4
-5.1588492 -4.6826816 1.1034888 100 12
-2.8216102 -2.5593777 -0.33328354 6 5
-5.161624 -4.6802731 1.3543624 82 13
-3.3428969 -3.0300915 -0.23645388 37 6
-5.1582985 -4.6739802 1.6070504 66 14
-3.3367043 -3.0212972 -0.078570738 39 7
-5.1546907 -4.6657991 1.8629795 100 15
-1.0272756 -0.92626297 -0.37062889 8 0
-3.3435509 -3.0137186 0.078570738 24 8
-1.184438 -1.0668477 -0.36801991 8 1
-5.1533256 -4.6400752 0.3634209 54 9
-1.3847917 -1.2464347 -0.3621555 6 2
-5.1749616 -4.6562848 0.60904431 85 10
-1.6642787 -1.4964212 -0.35448053 6 3
-5.1805816 -4.6564355 0.85527909 92 11
-2.1100628 -1.8959124 -0.3483026 6 4
-5.1627212 -4.6371274 1.0991087 91 12
-2.830524 -2.5405765 -0.3327606 6 5
-5.1655989 -4.6348281 1.3490196 89 13
-3.3854799 -3.0365505 -0.23833798 36 6
-5.1783471 -4.6430054 1.6057006 74 14
-3.3822649 -3.030473 -0.079268835 35 7
-5.1545858 -4.6168342 1.8541797 99 15
-1.0349946 -0.92344368 -0.37166417 8 0
-3.3876402 -3.0214598 0.07923393 22 8
-1.1812793 -1.0528516 -0.3653205 8 1
-5.1894808 -4.6236577 0.36425829 87 9
-1.3883668 -1.2365555 -0.36139226 7 2
-5.1709957 -4.6039538 0.60573238 68 10
-1.6647121 -1.4811214 -0.35291618 6 3
-5.1648417 -4.5936289 0.84869814 85 11
-2.1229284 -1.8874758 -0.34879011 6 4
-5.1677356 -4.5929732 1.0950414 91 12
-2.8378294 -2.5204287 -0.33206338 6 5
-5.1530938 -4.5751309 1.3394792 84 13
-3.410295 -3.0267375 -0.23896599 36 6
-4.3746047 -3.8812263 1.3501562 26 14
-3.4190338 -3.0312948 -0.079757497 35 7
-5.1627865 -4.575686 1.8484857 100 15
-1.0398157 -0.91801161 -0.37166417 8 0
-3.4348984 -3.0314693 0.079966925 16 8
-1.1926221 -1.0518078 -0.36712012 7 1
-5.1896467 -4.5752912 0.36258355 82 9
-1.3948225 -1.2292688 -0.36139226 6 2
-5.1995173 -4.5807657 0.60625535 55 10
-1.6813406 -1.4802163 -0.3547934 6 3
-5.179882 -4.5586529 0.84723574 78 11
-2.1238394 -1.8684673 -0.34732765 6 4
-5.1961641 -4.5697646 1.09598 75 12
-2.865953 -2.518688 -0.33380648 6 5
-5.1902523 -4.5597482 1.3429137 68 13
-3.4561102 -3.0351989 -0.24105945 39 6
-4.3611841 -3.8286979 1.3398085 28 14
-3.4619169 -3.0370893 -0.080385789 39 7
-4.3907356 -3.8505712 1.5648201 31 15
-1.044608 -0.91255468 -0.37166417 8 0
-3.4733174 -3.0331721 0.080490492 13 8
-1.203986 -1.0506741 -0.36891973 7 1
-5.2376132 -4.5690618 0.36425829 84 9
-1.3894029 -1.2116258 -0.35833931 6 2
-5.2474599 -4.5744271 0.60904431 53 10
-1.6980051 -1.4791776 -0.35667065 6 3
-5.2411056 -4.5640607 0.85332924 70 11
-2.1425769 -1.8651419 -0.34879011 6 4
-5.2483335 -4.5671325 1.1019244 78 12
-2.8806047 -2.5049551 -0.3339808 6 5
-5.2629523 -4.5750141 1.3555073 76 13
-3.4930606 -3.0354021 -0.24252485 36 6
-5.2609372 -4.5700388 1.60885 54 14
-3.4913619 -3.0307188 -0.080699928 39 7
-5.2644057 -4.5682187 1.8676383 61 15
-1.0376798 -0.89696574 -0.36752307 10 0
-5.1338639 -4.4361262 0.11843203 17 8
-1.206521 -1.0418082 -0.36801991 7 1
-5.3037982 -4.5781169 0.36718911 66 9
-1.4076185 -1.2145954 -0.36139226 6 2
-5.2984962 -4.570312 0.6121819 50 10
-1.6952524 -1.4612391 -0.35448053 5 3
-5.3100471 -4.575429 0.86064136 71 11
-2.1493051 -1.8513068 -0.3483026 6 4
-5.309598 -4.5718136 1.1097462 80 12
-2.8755574 -2.4742439 -0.33188906 6 5
-5.3166027 -4.573 1.3631396 13 13
-3.5482817 -3.0509264 -0.24524632 37 6
-5.312871 -4.5665665 1.6173981 45 14
-3.5299377 -3.0319407 -0.081223503 37 7
-5.3190322 -4.5670195 1.8785087 64 15
-1.045298 -0.89403188 -0.36855832 8 0
-5.1190243 -4.3766971 0.11755942 23 8
-1.2208488 -1.0430723 -0.37071934 7 1
-1.4139587 -1.2072085 -0.36139226 6 2
-5.3572092 -4.5722556 0.61619109 48 10
-1.6968685 -1.4472151 -0.35322908 6 3
-5.377738 -4.5849118 0.86770982 72 11
-2.1619911 -1.8426028 -0.34879011 6 4
-5.3725576 -4.5772581 1.1178808 77 12
-2.9036441 -2.472069 -0.33363217 4 5
-4.3342757 -3.6887579 1.1063106 11 13
-3.5839827 -3.0491304 -0.24660707 34 6
-4.3703127 -3.7167983 1.3245119 28 14
-3.5945241 -3.0548561 -0.082340457 40 7
-4.3638115 -3.7073336 1.5342795 37 15
-1.058813 -0.89603406 -0.37166417 8 0
-5.1204963 -4.3317528 0.11707074 23 8
-1.2084349 -1.0215684 -0.3653205 8 1
-5.3209391 -4.4965425 0.36509567 3 9
-1.4292588 -1.20739 -0.36368197 6 2
-5.4206538 -4.5775657 0.62072319 46 10
-1.7059321 -1.4395844 -0.35354191 5 3
-5.427465 -4.5784512 0.87185335 70 11
-2.1746442 -1.833817 -0.34927759 6 4
-4.3497829 -3.6667528 0.90106261 17 12
-2.8997865 -2.4427118 -0.33171475 6 5
-5.4467931 -4.586627 1.3841285 65 13
-3.6274028 -3.0534744 -0.24849114 24 6
-5.4394283 -4.577179 1.641243 30 14
-3.6257756 -3.0488627 -0.082689509 40 7
-4.3668971 -3.6707602 1.5285853 7 15
-1.0694146 -0.89543891 -0.37373474 10 0
-5.1216388 -4.2869139 0.11658207 25 8
-1.2167568 -1.0177277 -0.3662203 7 1
-5.476181 -4.5787992 0.37409744 39 9
-1.4385741 -1.2024078 -0.36444521 6 2
-4.368175 -3.6497719 0.49800789 14 10
-1.7255772 -1.4407606 -0.35604486 5 3
-2.175071 -1.8147746 -0.34781513 6 4
-4.3401003 -3.6198869 0.89511812 17 12
-2.9400856 -2.4504564 -0.33485237 6 5
-5.5114603 -4.5919752 1.3944323 68 13
-3.6709642 -3.0574484 -0.25037524 75 6
-5.5082474 -4.5860424 1.65474 54 14
-3.6708958 -3.0541375 -0.083352692 100 7
-5.5089345 -4.5817327 1.9199197 78 15
-1.0651627 -0.88243228 -0.37062889 8 0
-5.1301527 -4.2485595 0.11626793 25 8
-1.2250718 -1.0138276 -0.36712012 8 1
-5.537014 -4.5806179 0.37660959 45 9
-1.4297208 -1.1823474 -0.36062902 6 2
-5.5512152 -4.5891013 0.63013601 48 10
-1.7376661 -1.4354802 -0.35698348 6 3
-5.5623589 -4.5934134 0.88574642 59 11
-2.1876044 -1.8058892 -0.3483026 6 4
-5.5489192 -4.5790582 1.1394688 19 12
-2.9528751 -2.4350297 -0.33485237 6 5
-3.6884644 -3.0394547 -0.25047991 52 6
-4.3424191 -3.5770679 1.2988673 26 14
-3.6791177 -3.0285201 -0.08317817 84 7
-5.5716343 -4.5847397 1.9333783 68 15
-1.0578157 -0.86704606 -0.36648777 8 0
-3.6875269 -3.0214312 0.083213076 14 8
-1.2363944 -1.0123376 -0.36891973 8 1
-5.5949249 -4.5793929 0.37891236 3 9
-1.4343723 -1.1736022 -0.3602474 5 2
-4.3290439 -3.5407591 0.48929232 14 10
-1.7390404 -1.4213619 -0.35573202 6 3
-5.6186156 -4.5906019 0.89086497 16 11
-2.1878057 -1.7868757 -0.3468402 6 4
-5.6202545 -4.5886683 1.1491677 39 12
-2.9439719 -2.4019012 -0.332412 6 5
-5.6322718 -4.5935678 1.4127499 14 13
-3.6950402 -3.0125287 -0.24985188 36 6
-5.6269665 -4.5859737 1.6758853 56 14
-3.6809697 -2.9978499 -0.082864024 68 7
-5.6210313 -4.5762405 1.9421781 85 15
-1.0653419 -0.86392915 -0.36752307 8 0
-3.6815486 -2.984453 0.082724407 18 8
-1.2325925 -0.99849015 -0.3662203 7 1
-5.6700468 -4.5915146 0.38236654 17 9
-1.454231 -1.1771932 -0.36368197 6 2
-4.3196454 -3.4954832 0.48615471 16 10
-1.7280263 -1.3973322 -0.35197759 6 3
-4.3195415 -3.4916584 0.68198091 10 11
-2.2110281 -1.7866246 -0.34903383 6 4
-5.6856923 -4.5926943 1.1576152 14 12
-2.9720116 -2.3989673 -0.33415511 6 5
-5.6883311 -4.5899067 1.4207639 32 13
-3.6967723 -2.9818542 -0.24890982 39 6
-4.3523326 -3.5093822 1.2907692 10 14
-3.6950591 -2.9772799 -0.082829125 57 7
-1.0758781 -0.86317503 -0.36959362 8 0
-3.6971252 -2.9651349 0.082724407 16 8
-1.231721 -0.98714799 -0.36442071 8 1
-4.3020725 -3.4466095 0.2888945 22 9
-1.4481158 -1.1597445 -0.36062902 6 2
-4.3254447 -3.462858 0.48476022 16 10
-1.7322342 -1.3857968 -0.35135183 6 3
-5.7562962 -4.6034231 0.90500182 55 11
-2.2203522 -1.7750233 -0.34903383 6 4
-5.7667584 -4.608489 1.1691914 58 12
-2.9845314 -2.3833735 -0.33415511 6 5
-5.7659874 -4.6029277 1.4341204 45 13
-3.6873577 -2.9425244 -0.24723509 54 6
-5.7599926 -4.594851 1.7010798 46 14
-3.6965246 -2.9466732 -0.082514979 54 7
-5.7608056 -4.5905662 1.9737542 77 15
-1.0803831 -0.85752982 -0.36959362 10 0
-3.6859686 -2.9246075 0.082131028 20 8
-1.236873 -0.980685 -0.36442071 9 1
-4.2840581 -3.3955045 0.28648707 21 9
-1.4634011 -1.1594617 -0.36291873 6 2
-5.8288407 -4.6165709 0.65053046 20 10
-1.7580539 -1.3914193 -0.35510629 6 3
-5.8021164 -4.5904632 0.90841419 31 11
-2.2171602 -1.7535217 -0.3470839 6 4
-5.8357468 -4.6137595 1.1782646 13 12
-2.9860268 -2.3590677 -0.33293492 6 5
-5.8285265 -4.6030941 1.443661 46 13
-3.7011449 -2.9219401 -0.24713041 58 6
-5.8268056 -4.5984316 1.7136772 11 14
-3.6946299 -2.9136584 -0.082131028 59 7
-5.8363447 -4.6010027 1.9913538 78 15
-1.0818193 -0.84947509 -0.36855832 8 0
-3.6996584 -2.9040327 0.082096115 22 8
-1.2542573 -0.98381716 -0.36801991 8 1
-4.2719159 -3.3496108 0.2844983 26 9
-1.4540005 -1.1396719 -0.35910255 6 2
-4.286191 -3.3583887 0.47639325 24 10
-1.7653154 -1.3821948 -0.35510629 6 3
-4.2691178 -3.3414054 0.66565043 12 11
-2.2247472 -1.7406662 -0.3468402 6 4
-5.8784971 -4.5977435 1.182019 60 12
-2.9967673 -2.3421745 -0.3327606 6 5
-5.8974142 -4.6075644 1.4547279 51 13
-3.7100976 -2.8976033 -0.24671172 58 6
-5.8953481 -4.6026378 1.7267244 50 14
-3.6924922 -2.8807418 -0.08174707 57 7
-5.8892989 -4.5929542 2.001189 47 15
-1.0832012 -0.84142864 -0.36752307 8 0
-3.7116542 -2.882169 0.08202631 28 8
-1.2532331 -0.97245753 -0.3662203 7 1
-4.2294269 -3.2806792 0.28052074 14 9
-1.4692564 -1.1392618 -0.36139226 6 2
-4.2564754 -3.2992814 0.47116393 14 10
-1.766281 -1.3680947 -0.35385481 6 3
-5.9550314 -4.6108775 0.92474467 59 11
-2.2385404 -1.7326384 -0.3475714 6 4
-4.2964125 -3.3242402 0.86038971 16 12
-3.0058379 -2.3240137 -0.332412 6 5
-5.9540792 -4.6018357 1.4627419 18 13
-3.7188964 -2.8732536 -0.24629304 58 6
-5.9610085 -4.603869 1.7388717 52 14
-3.6932778 -2.8503737 -0.081432931 55 7
-5.9560943 -4.5950966 2.0156829 65 15
-1.0906553 -0.83810008 -0.36855832 10 0
-3.7092507 -2.8492951 0.081642359 36 8
-1.2552158 -0.9635095 -0.3653205 9 1
-4.176827 -3.2049921 0.27591521 37 9
-1.472086 -1.1291633 -0.36062902 6 2
-6.0128932 -4.6105218 0.66290659 26 10
-1.7608762 -1.3492159 -0.35135183 6 3
-6.0247955 -4.6146388 0.93181306 15 11
-2.2633433 -1.7329619 -0.35000879 6 4
-6.029851 -4.6151748 1.2026683 55 12
-3.0195475 -2.309454 -0.33258632 5 5
-6.0233212 -4.6051779 1.4738088 18 13
-3.7164347 -2.8404007 -0.24514163 63 6
-3.7017937 -2.8261416 -0.081293307 56 7
-4.3583574 -3.3261943 1.469057 25 15
-1.0981048 -0.83471596 -0.36959362 8 0
-3.7241192 -2.8298337 0.081642359 42 8
-1.2509315 -0.949853 -0.3626211 9 1
-4.1792331 -3.1722097 0.27497312 29 9
-1.481106 -1.1238135 -0.36139226 6 2
-6.0909233 -4.6199136 0.66883314 18 10
-1.7805105 -1.3495233 -0.35385481 6 3
-6.088429 -4.6130018 0.93790656 57 11
-2.2565618 -1.7091017 -0.3475714 6 4
-3.0443096 -2.3032284 -0.3339808 6 5
-6.1005902 -4.613842 1.4867837 60 13
-3.7137306 -2.8076537 -0.24399024 64 6
-6.1115026 -4.6187401 1.7685652 49 14
-3.7133493 -2.8043108 -0.081223503 56 7
-6.1041059 -4.6081309 2.0493293 66 15
-1.1024603 -0.82895499 -0.36959362 8 0
-3.7308915 -2.8042891 0.081467837 44 8
-1.2496549 -0.93860888 -0.36082149 9 1
-4.1622438 -3.1251023 0.27277502 45 9
-1.4869702 -1.1160429 -0.36139226 6 2
-6.1676211 -4.6274176 0.6745854 22 10
-1.776489 -1.3318872 -0.35166472 6 3
-6.1538 -4.6120119 0.94424373 53 11
-2.2638907 -1.6960729 -0.34732765 6 4
-6.1742988 -4.6240096 1.2217534 54 12
-3.0563276 -2.2872572 -0.3339808 5 5
-6.1576786 -4.6065326 1.4947978 24 13
-3.7219825 -2.783386 -0.24357156 66 6
-6.1621361 -4.6065135 1.7762135 48 14
-3.7183688 -2.7776492 -0.081014074 61 7
-4.3697314 -3.2630339 1.4612924 15 15
-1.1098858 -0.82547671 -0.37062889 8 0
-3.739105 -2.779943 0.081328213 48 8
-1.2639382 -0.93902564 -0.36352089 8 1
-4.1721368 -3.0985024 0.27235636 29 9
-1.4896406 -1.1059014 -0.36062902 6 2
-6.2173653 -4.6140571 0.67737442 40 10
-1.7913718 -1.3284509 -0.35322908 6 3
-6.2304897 -4.6187401 0.95228714 15 11
-2.2727399 -1.6841961 -0.34732765 6 4
-6.2444563 -4.6257176 1.2308265 67 12
-3.0570514 -2.2629256 -0.3327606 6 5
-6.241684 -4.6186042 1.5092993 30 13
-3.730082 -2.759109 -0.24315289 67 6
-4.3121443 -3.1884894 1.2381306 23 14
-3.7135615 -2.7438822 -0.08059521 65 7
-6.2499247 -4.6162658 2.0819407 82 15
-1.0986314 -0.8082065 -0.3654525 7 0
-3.7407212 -2.7508497 0.081048973 48 8
-1.2688377 -0.93239468 -0.36352089 8 1
-4.1754255 -3.0671556 0.27151898 30 9
-1.5049051 -1.1050587 -0.36291873 6 2
-4.1984363 -3.0818017 0.45565021 12 10
-1.8030813 -1.3225583 -0.35416767 6 3
-6.3138199 -4.6294832 0.9613055 28 11
-2.2847292 -1.6746203 -0.34781513 6 4
-4.2751985 -3.1324108 0.83942741 16 12
-3.0656431 -2.244534 -0.332412 6 5
-6.2974672 -4.6090488 1.5169315 33 13
-3.7348063 -2.7324638 -0.24252485 66 6
-6.307559 -4.6130571 1.8041074 38 14
-3.7149622 -2.7149606 -0.080315977 65 7
-4.3350244 -3.166954 1.4385163 27 15
-1.1059722 -0.80471629 -0.36648777 8 0
-3.7308161 -2.7135816 0.080525406 46 8
-1.2768548 -0.92803013 -0.36442071 8 1
-4.1720386 -3.0311627 0.2702629 39 9
-1.5043164 -1.0925491 -0.36139226 6 2
-6.1557069 -4.4691 0.6655212 38 10
-1.7955909 -1.3026594 -0.35135183 6 3
-6.3717198 -4.6208348 0.96642399 11 11
-2.2966807 -1.6649644 -0.3483026 6 4
-4.2579503 -3.0856426 0.83285719 8 12
-3.0951045 -2.2413056 -0.33432943 5 5
-6.351728 -4.5978866 1.5241823 7 13
-3.7409716 -2.7070172 -0.24200147 67 6
-6.4074173 -4.6347895 1.8257027 50 14
-3.7275062 -2.6943011 -0.080281071 68 7
-6.3887429 -4.6161876 2.1119635 79 15
-1.1164426 -0.80342817 -0.36855832 8 0
-3.7303631 -2.6835005 0.080211259 50 8
-1.27062 -0.91336977 -0.36127138 8 1
-4.1716328 -2.9976223 0.26921618 32 9
-1.5132056 -1.0869482 -0.3621555 6 2
-6.1563644 -4.4205394 0.66308087 38 10
-1.8072022 -1.2966946 -0.35229045 6 3
-6.4603496 -4.6336889 0.97617352 2 11
-2.3037539 -1.6517599 -0.34805888 6 4
-6.4463959 -4.6202741 1.256169 18 12
-3.1051772 -2.2239089 -0.33415511 6 5
-4.2893209 -3.070853 1.0254076 17 13
-3.7307322 -2.6699564 -0.24043141 70 6
-6.4743896 -4.6317911 1.8378501 51 14
-3.7383089 -2.6724205 -0.080211259 71 7
-6.4804106 -4.6309714 2.1342218 66 15
-1.1269298 -0.80205208 -0.37062889 10 0
-3.7411034 -2.6616132 0.080141447 58 8
-1.2801498 -0.91009158 -0.3626211 8 1
-4.1661062 -2.9606984 0.26785544 45 9
-1.5156749 -1.0767363 -0.36139226 6 2
-4.218709 -2.9958656 0.45268691 22 10
-1.8204104 -1.2917869 -0.35354191 6 3
-6.5007138 -4.6112852 0.97861093 8 11
-2.3026552 -1.6327851 -0.34659645 6 4
-6.5510783 -4.6435728 1.2718123 12 12
-3.1053987 -2.1995583 -0.33293492 5 5
-6.5517464 -4.638895 1.560436 9 13
-3.7332487 -2.6423104 -0.23969871 66 6
-4.3302479 -3.0637176 1.2246336 23 14
-3.7424524 -2.6458848 -0.080001831 68 7
-6.5613651 -4.6371145 2.1528571 100 15
-1.1263747 -0.79280454 -0.36907598 11 0
-3.7451756 -2.6350851 0.079932027 58 8
-1.2928684 -0.90898019 -0.36487061 8 1
-4.168479 -2.9296572 0.26701808 34 9
-1.5116535 -1.0620137 -0.35910255 6 2
-4.5310841 -3.1821365 0.4844116 48 10
-1.8239157 -1.279968 -0.35291618 6 3
-6.36551 -4.4654617 0.95472455 27 11
-2.3079216 -1.6184273 -0.34610897 6 4
-6.6189752 -4.639823 1.2802597 16 12
-3.1266634 -2.1901278 -0.3339808 5 5
-6.6193671 -4.6349311 1.5707397 10 13
-3.7486689 -2.6238716 -0.23980337 66 6
-6.6311154 -4.6397061 1.8684435 46 14
-3.7300336 -2.6079192 -0.07944335 68 7
-6.6267252 -4.6314683 2.1663156 46 15
-1.1273392 -0.78468889 -0.36804068 12 0
-3.7490735 -2.6085858 0.079722598 61 8
-1.2992101 -0.90331084 -0.3653205 8 1
-4.1706414 -2.8986714 0.26618072 34 9
-1.5236424 -1.0585654 -0.36062902 6 2
-4.5280457 -3.1447306 0.48231989 54 10
-1.8468207 -1.2816634 -0.35604486 6 3
-6.6954393 -4.6447921 1.0005474 2 11
-2.3359392 -1.6198952 -0.34903383 6 4
-6.6724014 -4.6253586 1.2858914 10 12
-3.1249857 -2.16465 -0.33258632 6 5
-6.6903534 -4.6326194 1.5818065 12 13
-3.7557871 -2.5996614 -0.2393847 66 6
-6.7065978 -4.6404071 1.8828404 42 14
-3.7403476 -2.5860791 -0.079373546 68 7
-6.7017369 -4.6318569 2.1828799 100 15
-1.1218843 -0.77220356 -0.36493486 11 0
-3.7478535 -2.5787191 0.079408452 67 8
-1.3023161 -0.89539188 -0.36487061 6 1
-4.1775312 -2.8711383 0.26565734 47 9
-1.5324007 -1.0527962 -0.36139226 6 2
-4.5247416 -3.1074429 0.48022813 26 10
-1.8307042 -1.2563275 -0.35166472 6 3
-4.2265978 -2.8994322 0.62933332 10 11
-2.3362029 -1.6020287 -0.34781513 6 4
-4.2574272 -2.9183974 0.81752664 16 12
-3.1329892 -2.1460066 -0.33223769 5 5
-6.7809334 -4.6430039 1.597453 24 13
-3.7561622 -2.570935 -0.23854731 67 6
-6.7903109 -4.6459413 1.8994867 48 14
-3.7422822 -2.5585587 -0.079129212 68 7
-6.7881021 -4.6392145 2.2030678 100 15
-1.1402855 -0.77610171 -0.36959362 8 0
-3.7563446 -2.5556848 0.079303734 69 8
-1.297317 -0.88198704 -0.3621712 6 1
-4.1759887 -2.8379984 0.26461062 32 9
-1.5378922 -1.044758 -0.36139226 6 2
-4.5475421 -3.0881872 0.48092538 50 10
-1.8405266 -1.248943 -0.35229045 6 3
-6.855422 -4.6502013 1.0171217 45 11
-2.3429165 -1.5886604 -0.3475714 6 4
-6.8676348 -4.6549845 1.3140497 49 12
-3.1606791 -2.1407452 -0.3339808 5 5
-6.8880615 -4.6635685 1.6169155 54 13
-3.7497234 -2.5377996 -0.23729126 64 6
-4.320827 -2.9232209 1.2043879 16 14
-3.7572839 -2.5400491 -0.079164118 69 7
-6.8971324 -4.6609373 2.2305026 42 15
-1.1507444 -0.7744348 -0.37166417 8 0
-3.763037 -2.531518 0.079164118 69 8
-1.2970655 -0.87192041 -0.36082149 8 1
-4.1609511 -2.7960443 0.26272655 32 9
-1.5466008 -1.0388809 -0.3621555 6 2
-4.1964407 -2.8177652 0.44222823 22 10
-1.8404793 -1.2348866 -0.35103899 6 3
-7.0890517 -4.7546706 1.0480764 35 11
-2.3462563 -1.5730543 -0.3468402 6 4
-7.0953894 -4.7553315 1.3528454 27 12
-3.1586015 -2.1152971 -0.33258632 6 5
-7.1391549 -4.7792487 1.6699605 46 13
-3.7546599 -2.5125775 -0.23676789 61 6
-7.1252856 -4.7663608 1.9791193 34 14
-3.7555692 -2.51034 -0.078849971 66 7
-7.1559601 -4.7814589 2.306078 100 15
-1.1483502 -0.76411819 -0.36959362 7 0
-3.7695808 -2.50735 0.079024501 76 8
-1.3081049 -0.86943203 -0.3626211 8 1
-4.1622257 -2.7653768 0.26188916 39 9
-1.5356652 -1.0199068 -0.35833931 6 2
-4.5713325 -3.0348868 0.48005384 42 10
-1.8650271 -1.2372447 -0.35448053 6 3
-7.2263465 -4.7920899 1.0646507 30 11
-2.3494964 -1.5574582 -0.34610897 6 4
-4.2516961 -2.8173382 0.80782765 11 12
-3.1845841 -2.1086304 -0.33415511 6 5
-7.2410264 -4.7927303 1.6878965 57 13
-3.7594359 -2.4873738 -0.23624454 64 6
-7.2330399 -4.783814 2.0020645 15 14
-3.7453058 -2.4752066 -0.078361303 68 7
-4.3536711 -2.8761714 1.3981405 30 15
-1.1491076 -0.75597131 -0.36855832 8 0
-3.7726328 -2.4809859 0.078815073 76 8
-1.3207823 -0.86792159 -0.36487061 8 1
-4.1716399 -2.7402558 0.26157513 32 9
-1.540984 -1.0118526 -0.35833931 6 2
-4.5888262 -3.0120025 0.48022813 28 10
-1.8681756 -1.2252964 -0.35385481 6 3
-7.3177443 -4.7977228 1.0744002 34 11
-2.369241 -1.5527519 -0.34781513 7 4
-7.3232522 -4.7976804 1.3866353 46 12
-3.1789119 -2.0810142 -0.332412 6 5
-4.2909446 -2.8079157 0.9967863 17 13
-3.7724087 -2.4676549 -0.23624454 64 6
-7.3215981 -4.7874703 2.0196106 40 14
-3.756541 -2.454468 -0.078326404 68 7
-7.3140054 -4.777041 2.3407595 100 15
-1.1595277 -0.75415772 -0.37062889 8 0
-3.7621007 -2.4459381 0.078326404 80 8
-1.3318449 -0.86524111 -0.36667022 7 1
-4.1742053 -2.7107608 0.26084244 32 9
-1.5577879 -1.0112528 -0.36101064 7 2
-4.5259809 -2.9369609 0.4720355 10 10
-1.8513618 -1.2004517 -0.34947464 5 3
-7.4127274 -4.8046899 1.0846373 52 11
-2.3806708 -1.5424838 -0.3483026 6 4
-7.4029851 -4.7947068 1.3969599 46 12
-3.2064905 -2.0751662 -0.33415511 6 5
-7.4309301 -4.8072853 1.7203341 17 13
-3.7752144 -2.4413619 -0.23561651 64 6
-7.4169364 -4.7945609 2.0389564 22 14
-3.7676611 -2.4336793 -0.078291491 68 7
-7.4135718 -4.7868843 2.3645709 100 15
-1.1732104 -0.75434482 -0.37373474 8 0
-3.7731731 -2.4251251 0.078291491 82 8
-1.3068427 -0.83930022 -0.35857198 6 1
-4.1648121 -2.6737621 0.25937703 42 9
-1.5597569 -1.0009619 -0.3602474 7 2
-7.4978342 -4.8098302 0.77934664 34 10
-1.8642739 -1.1950057 -0.3507261 5 3
-7.4862528 -4.7968698 1.0917057 20 11
-2.3870432 -1.5289265 -0.34805888 6 4
-7.5045147 -4.8048768 1.4113519 47 12
-3.19046 -2.0411685 -0.33136615 4 5
-7.5171938 -4.8074479 1.7344538 58 13
-3.7677526 -2.4086516 -0.23436043 67 6
-7.5125494 -4.8007812 2.0583022 28 14
-3.7719252 -2.4085381 -0.078116976 69 7
-7.5280967 -4.8051672 2.3930409 54 15
-1.1804047 -0.75026423 -0.37476999 8 0
-3.7807555 -2.4021187 0.07818678 80 8
-1.3243808 -0.84080207 -0.3621712 8 1
-4.172009 -2.6476383 0.25895834 37 9
-1.5600032 -0.98962599 -0.35910255 6 2
-6.3652854 -4.0364184 0.65942037 14 10
-1.8805171 -1.1915716 -0.35260335 5 3
-7.5951161 -4.8107176 1.1038926 69 11
-2.3832755 -1.5089738 -0.34635273 6 4
-7.5796456 -4.7972088 1.420738 11 12
-3.2145746 -2.0329552 -0.3327606 4 5
-7.6086421 -4.8099842 1.7497185 58 13
-3.7803116 -2.3888917 -0.23436043 67 6
-7.5919528 -4.7957253 2.073149 37 14
-3.7709563 -2.3802168 -0.077837728 69 7
-7.618506 -4.8069201 2.4137464 100 15
-1.1712306 -0.73585141 -0.37062889 8 0
-3.7932811 -2.3822904 0.07818678 80 8
-1.3304157 -0.8348918 -0.3626211 8 1
-4.1672029 -2.6140828 0.25780693 34 9
-1.5452037 -0.96892869 -0.35452312 6 2
-6.3458171 -3.9776373 0.65523684 4 10
-1.8733374 -1.1733207 -0.35010037 5 3
-7.5899162 -4.7519212 1.0995053 22 11
-2.3810472 -1.4901561 -0.34489027 6 4
-7.7017908 -4.8182225 1.4388845 16 12
-3.2336218 -2.0213764 -0.33363217 5 5
-7.7103095 -4.8179369 1.7672729 34 13
-3.7842987 -2.3637745 -0.23383708 69 6
-7.6996083 -4.8075113 2.095644 22 14
-3.7697947 -2.3519721 -0.077558495 71 7
-4.3619008 -2.7203276 1.377435 29 15
-1.1685028 -0.72563231 -0.36855832 7 0
-3.7904124 -2.3529038 0.077872641 78 8
-1.338081 -0.82996875 -0.36352089 8 1
-4.1723466 -2.5869648 0.2572836 37 9
-1.5669432 -0.9711675 -0.35833931 6 2
-4.1512189 -2.5718596 0.42723745 30 10
-1.9029692 -1.1780528 -0.35448053 6 3
-7.6332612 -4.7236066 1.1021864 63 11
-2.405699 -1.4881115 -0.34732765 7 4
-7.7437139 -4.7882171 1.442013 74 12
-3.2390769 -2.0012763 -0.33310926 6 5
-7.7538052 -4.788847 1.7714708 78 13
-3.7898257 -2.33973 -0.23341838 72 6
-7.7462316 -4.7804375 2.1014926 53 14
-3.7718456 -2.3259029 -0.077349067 73 7
-7.7325611 -4.7664127 2.4339345 60 15
-1.1706396 -0.71849364 -0.36804068 7 0
-3.7839313 -2.3215213 0.077488683 71 8
-1.3424082 -0.82295138 -0.36352089 8 1
-4.1722112 -2.5567338 0.25644621 37 9
-1.5686584 -0.96089882 -0.35757607 6 2
-1.8770963 -1.1484847 -0.34853604 6 3
-2.42362 -1.4817073 -0.34879011 6 4
-7.7484503 -4.7352471 1.4382586 79 12
-3.2410092 -1.9790969 -0.33223769 5 5
-7.7335267 -4.7205677 1.7611672 35 13
-3.8003192 -2.3188148 -0.23331371 75 6
-7.759511 -4.7327089 2.0983434 23 14
-3.7839723 -2.3061223 -0.077349067 73 7
-7.7442141 -4.7178183 2.4297934 56 15
-1.1859477 -0.71936786 -0.37166417 7 0
-3.7874851 -2.2964935 0.077314161 70 8
-1.3433653 -0.81389177 -0.3626211 8 1
-4.1752906 -2.5286458 0.25581816 32 9
-1.5837451 -0.9587723 -0.35986578 6 2
-7.3041205 -4.4200511 0.7469247 2 10
-1.8966073 -1.1468173 -0.35103899 7 3
-7.2813725 -4.4010782 1.0446641 9 11
-2.4245484 -1.4648908 -0.34781513 6 4
-7.7562308 -4.6843987 1.43513 74 12
-3.2479153 -1.9600412 -0.33188906 5 5
-7.7514133 -4.6759524 1.7596406 82 13
-3.790174 -2.2854764 -0.23195298 72 6
-7.7624869 -4.6789379 2.0924947 53 14
-3.7942822 -2.2852454 -0.077314161 76 7
-7.7456393 -4.6632552 2.4225464 87 15
-1.1896982 -0.71314824 -0.37166417 7 0
-3.7977419 -2.2756033 0.077279255 75 8
-1.3409207 -0.8028425 -0.36082149 8 1
-4.1627665 -2.4913645 0.25424811 34 9
-1.568526 -0.9383719 -0.35528636 6 2
-5.1110597 -3.0564842 0.52101701 2 10
-1.91276 -1.1429507 -0.35291618 6 3
-7.2600069 -4.3364253 1.0383269 9 11
-2.4151418 -1.4419993 -0.34537774 7 4
-4.2592573 -2.5420513 0.78561401 16 12
-3.2649786 -1.9470898 -0.33258632 5 5
-7.7555547 -4.6232405 1.7550613 87 13
-3.7986562 -2.263556 -0.23174362 70 6
-7.7483735 -4.6152921 2.0821469 52 14
-3.7907298 -2.256144 -0.077000014 73 7
-7.7533479 -4.6127567 2.4173698 100 15
-1.1900914 -0.7049402 -0.37062889 7 0
-3.8044429 -2.2526312 0.077174544 73 8
-1.3585234 -0.80374885 -0.36442071 8 1
-4.1620007 -2.4614012 0.25341073 34 9
-1.5666579 -0.92614967 -0.35375988 6 2
-4.1647177 -2.4610462 0.42322829 9 10
-1.9255224 -1.1369369 -0.35416767 6 3
-4.1866479 -2.4710476 0.59691608 9 11
-2.4260776 -1.4313518 -0.34586522 6 4
-7.7572155 -4.5748215 1.4263695 55 12
-3.2854271 -1.936038 -0.33363217 5 5
-7.7627401 -4.5726032 1.751245 42 13
-3.8070147 -2.2416084 -0.2315343 75 6
-7.7657146 -4.5707049 2.0803473 36 14
-3.7904251 -2.2291682 -0.076755688 74 7
-7.7590742 -4.5613289 2.4116762 84 15
-1.1904318 -0.69674736 -0.36959362 8 0
-3.8075554 -2.2276306 0.077000014 75 8
-1.3795369 -0.80645919 -0.36891973 7 1
-4.1748319 -2.4395745 0.25341073 34 9
-1.5782664 -0.92189544 -0.35528636 6 2
-4.1517382 -2.4241359 0.42061362 5 10
-1.9348609 -1.1288309 -0.3547934 6 3
-7.4507766 -4.3451643 1.0590447 1 11
-2.4386842 -1.4216284 -0.34659645 6 4
-7.8049583 -4.5480671 1.4307499 47 12
-3.2696924 -1.9037709 -0.33101749 4 5
-7.8306923 -4.5575705 1.7611672 58 13
-3.808341 -2.2156181 -0.23090626 72 6
-7.7541628 -4.509409 2.0708995 56 14
-3.7951291 -2.2052729 -0.076616064 76 7
-7.7561221 -4.5051155 2.4033937 63 15
-1.1940634 -0.69050515 -0.36959362 8 0
-3.8001232 -2.196656 0.076616064 73 8
-1.3736154 -0.7933774 -0.3662203 7 1
-4.1616035 -2.402703 0.25184065 37 9
-1.5830719 -0.9136188 -0.35528636 6 2
-4.4215193 -2.5507069 0.44658601 39 10
-1.9133625 -1.1029003 -0.3497875 6 3
-4.1847744 -2.4112132 0.59301627 4 11
-2.4495347 -1.4108216 -0.3470839 6 4
-7.8577666 -4.5238938 1.4360685 14 12
-3.3072481 -1.9025208 -0.33380648 4 5
-3.8146956 -2.192661 -0.23059224 70 6
-7.7709093 -4.4648638 2.0690999 36 14
-3.7996869 -2.1813884 -0.076476447 74 7
-7.7460928 -4.4452128 2.3930409 57 15
-1.207727 -0.68999338 -0.37269944 7 0
-3.8046265 -2.1727622 0.076476447 73 8
-1.3557475 -0.77361852 -0.36037159 6 1
