# .PCD v0.7 - Point Cloud Data file format
VERSION 0.7
FIELDS x y z intensity ring
SIZE 4 4 4 4 2
TYPE F F F F U
COUNT 1 1 1 1 1
WIDTH 1279
HEIGHT 1
VIEWPOINT 0 0 0 1 0 0 0
POINTS 1279
DATA ascii
3.3691378 -1.8201663 0.33502665 58 10
2.2189631 -1.1997888 -0.39953369 11 3
3.2947376 -1.7822012 0.45993495 48 11
2.2818313 -1.2348112 -0.31856647 73 4
3.2397759 -1.7539332 0.58350062 28 12
2.2860663 -1.2386508 -0.22747649 73 5
3.2759387 -1.7757295 0.72431099 34 13
2.2894645 -1.241526 -0.13649218 63 6
3.2750852 -1.7767463 0.8602128 35 14
2.2898486 -1.2432865 -0.045480974 57 7
3.2067351 -1.7418399 0.97781837 8 15
1.304078 -0.71159697 -0.39806372 9 0
3.1839278 -1.7380971 0.063317336 57 8
1.5153339 -0.82755971 -0.39861327 7 1
3.1984172 -1.7481811 0.19102626 57 9
1.7966244 -0.98240072 -0.3980276 7 2
3.3735447 -1.8454317 0.33642116 58 10
2.211129 -1.2100561 -0.39922079 10 3
3.2975481 -1.806103 0.4616411 47 11
2.2683711 -1.2429262 -0.31759155 74 4
3.2599952 -1.7870145 0.58881938 31 12
2.2850087 -1.2530798 -0.22799942 68 5
3.2855279 -1.8032484 0.72850877 33 13
2.2829323 -1.2534966 -0.13649218 59 6
3.2759857 -1.7994995 0.86291224 34 14
2.295794 -1.2616017 -0.045725305 60 7
3.2181928 -1.7692163 0.98403007 10 15
1.3037159 -0.72028375 -0.39909899 9 0
3.1870346 -1.7615155 0.063561663 56 8
1.5041584 -0.8317107 -0.39681366 7 1
3.198266 -1.769181 0.19154961 56 9
1.7864759 -0.98862988 -0.39688274 7 2
3.3742936 -1.8688622 0.33746704 58 10
2.2082186 -1.2235318 -0.39984655 9 3
3.3057265 -1.8323941 0.46407849 47 11
2.2776752 -1.2630557 -0.31978518 68 4
3.1797786 -1.7647569 0.57599175 20 12
2.2853839 -1.2688955 -0.22869666 68 5
3.2780752 -1.8208083 0.72889042 33 13
2.2870338 -1.2708561 -0.13712022 58 6
3.2634292 -1.8141638 0.86201245 39 14
2.2804198 -1.2687442 -0.045550782 56 7
3.222389 -1.7935585 0.9881711 10 15
1.2831917 -0.71744555 -0.3939226 9 0
3.1920397 -1.7854333 0.063840903 56 8
1.5065848 -0.8433826 -0.39861327 7 1
3.1976721 -1.7907825 0.19207297 53 9
1.7812749 -0.99797034 -0.39688274 7 2
3.3682673 -1.8878648 0.33781564 58 10
2.201782 -1.2350771 -0.39984655 9 3
3.3168607 -1.8613353 0.46700338 45 11
2.2814167 -1.2807947 -0.32124761 70 4
3.2104192 -1.8030771 0.58318776 27 12
2.2734981 -1.2779155 -0.22817372 69 5
3.2958767 -1.8533435 0.73499632 27 13
2.2977555 -1.292606 -0.13816693 60 6
3.2878509 -1.8503412 0.87101048 34 14
2.2841995 -1.2865551 -0.045760211 57 7
3.2365165 -1.8236833 0.99541807 10 15
1.2861425 -0.72796082 -0.39599317 9 0
3.1722069 -1.7962104 0.063631475 53 8
1.50893 -0.85510254 -0.40041289 7 1
3.193464 -1.8104557 0.19238698 56 9
1.7760252 -1.0072833 -0.39688274 7 2
3.3652678 -1.9094082 0.3385129 60 10
2.1866961 -1.2417116 -0.39828217 9 3
3.3122475 -1.8816184 0.46773461 31 11
2.2833083 -1.2976266 -0.32246631 71 4
3.3005342 -1.8764886 0.60133415 43 12
2.2685075 -1.2907871 -0.22834805 68 5
3.2724779 -1.8628054 0.73194337 24 13
2.2926915 -1.3056077 -0.13827161 57 6
3.2865837 -1.8723541 0.87326002 30 14
2.2930663 -1.3074116 -0.046074353 61 7
3.2537727 -1.855919 1.0037004 10 15
1.2823133 -0.73468494 -0.39599317 9 0
3.1766379 -1.8207505 0.063910715 56 8
1.4909089 -0.85523438 -0.39681366 7 1
3.2047284 -1.839081 0.19364306 56 9
1.7792397 -1.021456 -0.39879084 7 2
3.3690457 -1.9349405 0.33990738 60 10
2.1853025 -1.2560972 -0.39922079 12 3
3.3092334 -1.9028935 0.46870953 33 11
2.2850859 -1.3145134 -0.32368499 68 4
3.3077848 -1.9035972 0.6044628 42 12
2.2893422 -1.3185575 -0.23113704 66 5
3.276288 -1.8877556 0.73499632 24 13
2.2858238 -1.3175942 -0.13827161 54 6
3.2834878 -1.8934308 0.8750596 30 14
2.2948489 -1.3243978 -0.046248876 57 7
3.2975473 -1.9038398 1.0202647 8 15
1.2918185 -0.74914217 -0.40013427 9 0
3.1860876 -1.8483965 0.064294666 63 8
1.4931517 -0.86694294 -0.39861327 7 1
3.1881466 -1.8518229 0.19322437 52 9
1.7568922 -1.0208944 -0.39497465 7 2
3.3692036 -1.9585623 0.34095326 61 10
2.1855257 -1.2714956 -0.40047228 18 3
3.3095183 -1.9261856 0.47017199 40 11
2.2713103 -1.3224649 -0.32271007 68 4
3.3063068 -1.9258617 0.60602719 43 12
2.284128 -1.3315297 -0.23131134 64 5
3.293494 -1.9207089 0.74110222 23 13
2.2857943 -1.3335704 -0.13869029 55 6
3.2853103 -1.9174733 0.87820894 29 14
2.29479 -1.3404299 -0.046388499 57 7
3.3208928 -1.940573 1.0306175 8 15
1.2712173 -0.74611706 -0.39495787 9 0
3.1849878 -1.8701159 0.064469188 61 8
1.4786627 -0.86856729 -0.39591387 7 1
3.1921813 -1.876588 0.19406174 56 9
1.753215 -1.0310745 -0.39535624 7 2
3.3743572 -1.9852693 0.34252208 66 10
2.1671453 -1.2755272 -0.39828217 11 3
3.3045187 -1.9465104 0.47090316 42 11
2.2746158 -1.340386 -0.32417247 70 4
3.3046863 -1.948163 0.60759157 45 12
2.2825077 -1.34611 -0.23183426 62 5
3.2800102 -1.9359312 0.74033892 12 13
2.2925391 -1.3536444 -0.13952768 55 6
3.2886484 -1.9425778 0.8818081 22 14
2.2845328 -1.3499928 -0.046318687 56 7
3.3276582 -1.9671876 1.0357939 8 15
1.2639714 -0.7507897 -0.3939226 7 0
3.1906242 -1.8959605 0.064783335 63 8
1.4908457 -0.88625556 -0.40041289 7 1
3.1929421 -1.8988465 0.19468978 56 9
1.7429119 -1.0369236 -0.39421138 7 2
3.346797 -1.992717 0.34077895 73 10
2.1553457 -1.2838242 -0.39734361 7 3
3.3338461 -1.9865825 0.47650915 22 11
2.2746232 -1.3559475 -0.32514745 70 4
3.3317616 -1.987705 0.61447465 27 12
2.2754283 -1.3580427 -0.23183426 62 5
3.3005116 -1.9706242 0.74720806 15 13
2.2959464 -1.3713757 -0.1401557 55 6
3.2938297 -1.9681944 0.88585728 14 14
2.291163 -1.3701468 -0.046597924 57 7
3.358758 -2.0093789 1.0487348 11 15
1.2634671 -0.75916755 -0.39495787 9 0
3.1775591 -1.9100251 0.064713523 66 8
1.486185 -0.89404947 -0.40041289 7 1
3.1966462 -1.9237775 0.19552715 61 9
1.7509145 -1.0541362 -0.39726433 7 2
3.3469088 -2.0157988 0.34182483 82 10
2.1181417 -1.2767364 -0.39171195 6 3
3.4695945 -2.0921674 0.49747071 19 11
2.2827902 -1.3770671 -0.32734108 71 4
3.3707054 -2.0341418 0.62354785 27 12
2.2768137 -1.3750881 -0.23270583 61 5
3.3691251 -2.0355957 0.76514411 34 13
2.29899 -1.3895772 -0.14078373 54 6
3.2117729 -1.9420553 0.86651146 9 14
2.2942226 -1.3883362 -0.046807356 59 7
3.3614123 -2.0349417 1.052876 11 15
1.2561734 -0.76376534 -0.3939226 9 0
3.1777658 -1.9328716 0.064922951 66 8
1.4848125 -0.90384531 -0.40131268 7 1
3.1967647 -1.9467214 0.19615518 61 9
1.7453711 -1.0632895 -0.39726433 7 2
3.4417903 -2.0975809 0.35263211 30 10
2.1063681 -1.2847235 -0.39077336 7 3
3.3653915 -2.0534375 0.48406506 16 11
2.2857149 -1.3952062 -0.32880351 71 4
3.3380916 -2.0383797 0.61948055 27 12
2.2848833 -1.3963413 -0.23427464 62 5
3.3265953 -2.0337515 0.75789338 26 13
2.2899792 -1.4005536 -0.14067906 56 6
3.188262 -1.950709 0.86291224 9 14
2.300565 -1.4086835 -0.047086593 59 7
3.223865 -1.9748131 1.0130178 10 15
1.2686112 -0.78045481 -0.39909899 9 0
3.1846318 -1.9599646 0.065272003 66 8
1.473581 -0.90726227 -0.3995131 7 1
3.1831272 -1.9613376 0.19594584 59 9
1.746465 -1.0765345 -0.39879084 7 2
3.4036267 -2.0988417 0.34984317 32 10
2.1166508 -1.3057396 -0.39390203 6 3
3.2971637 -2.0355747 0.47577798 16 11
2.2783782 -1.407155 -0.32880351 71 4
3.2937629 -2.0350637 0.61322314 27 12
2.2879553 -1.4141734 -0.23532049 62 5
3.2975354 -2.0397809 0.75369561 28 13
2.2911062 -1.4177796 -0.14120242 60 6
3.139895 -1.943784 0.85256451 6 14
2.2968054 -1.4224154 -0.047156405 56 7
3.1514242 -1.952443 0.99334759 11 15
1.2645074 -0.78708649 -0.39909899 9 0
3.1929982 -1.9882394 0.065655954 67 8
1.4588859 -0.90878326 -0.39681366 7 1
3.1884146 -1.9869301 0.19688788 57 9
1.7276655 -1.0770513 -0.39573789 7 2
3.3723061 -2.1039784 0.34775141 28 10
2.1282187 -1.3283095 -0.39734361 6 3
3.2682962 -2.0406723 0.47309685 15 11
2.276278 -1.421824 -0.32953474 67 4
3.2529118 -2.0334344 0.60759157 24 12
2.2906549 -1.4324721 -0.23636638 62 5
3.2572098 -2.0377026 0.74682647 28 13
2.290673 -1.4335959 -0.14162111 57 6
3.0870714 -1.9327643 0.84086704 9 14
2.2961044 -1.4386688 -0.047296021 56 7
3.1378839 -1.9668648 0.99231225 7 15
1.2441584 -0.78318512 -0.3939226 9 0
3.1964309 -2.0129001 0.065935194 67 8
1.470594 -0.92679954 -0.40131268 7 1
3.1982417 -2.0163796 0.19814396 57 9
1.7170208 -1.0829405 -0.39459303 7 2
3.3279133 -2.0997567 0.34426519 30 10
2.1345961 -1.3478719 -0.39984655 6 3
3.2424619 -2.0482156 0.47090316 22 11
2.2788706 -1.4400854 -0.33099717 68 4
3.2225416 -2.0372059 0.60383707 22 12
2.2763884 -1.4401855 -0.23566914 62 5
3.22493 -2.04108 0.7418654 27 13
2.3033845 -1.4583911 -0.14287716 54 6
3.1016035 -1.9645429 0.84761554 19 14
2.2885401 -1.4506713 -0.047296021 57 7
3.1895387 -2.0225816 1.0119824 43 15
1.2367817 -0.78761333 -0.39288735 9 0
3.1774149 -2.0242367 0.065760665 63 8
1.4591485 -0.93029636 -0.3995131 7 1
3.1977434 -2.0395417 0.19877198 57 9
1.7245674 -1.100364 -0.39764598 7 2
3.2883227 -2.0989292 0.34130189 31 10
2.1108623 -1.3483959 -0.39671785 6 3
3.2049296 -2.0480621 0.46700338 25 11
2.2813342 -1.4584131 -0.3324596 70 4
3.1985173 -2.045537 0.60133415 30 12
2.2738507 -1.4553066 -0.23619205 61 5
3.1893978 -2.0420589 0.73614115 26 13
2.3024445 -1.4747405 -0.14329587 54 6
3.099479 -1.9860123 0.84986508 34 14
2.2977464 -1.4734284 -0.04764507 57 7
3.8390763 -2.4627514 1.2221435 51 15
1.2423849 -0.80035561 -0.39599317 9 0
3.1768582 -2.0473452 0.0659701 66 8
1.4444314 -0.93158621 -0.39681366 7 1
3.1970901 -2.0627539 0.19940001 57 9
1.7220813 -1.111508 -0.39840919 6 2
3.2588763 -2.1042297 0.33938447 31 10
2.11041 -1.3637184 -0.39796934 6 3
3.1841595 -2.0583489 0.46554092 32 11
2.2870021 -1.4789619 -0.33440951 68 4
3.1645434 -2.0472345 0.59695399 31 12
2.2862692 -1.4801861 -0.2382838 64 5
3.1539443 -2.0427215 0.73041683 27 13
2.2896628 -1.4835178 -0.14298184 56 6
3.1544487 -2.0446117 0.86786121 34 14
2.3034215 -1.494145 -0.047924306 56 7
3.8520577 -2.499644 1.2304258 60 15
1.2511257 -0.81528735 -0.40013427 9 0
3.1778209 -2.0715954 0.066214427 61 8
1.4427981 -0.94126612 -0.39771348 6 1
3.1845734 -2.0783739 0.19929534 56 9
1.7261014 -1.1269492 -0.40069893 6 2
3.2328007 -2.1114585 0.33781564 40 10
2.0999336 -1.3725882 -0.39734361 6 3
3.1600471 -2.0663018 0.46359101 46 11
2.2808883 -1.4920028 -0.33465323 71 4
3.1422102 -2.0562046 0.59476393 39 12
2.2901552 -1.4997776 -0.23950398 68 5
3.1300678 -2.0506005 0.72736394 30 13
2.2935569 -1.5031493 -0.14371455 55 6
3.1241436 -2.0482781 0.86246234 34 14
2.305598 -1.5127673 -0.048133738 55 7
3.8582971 -2.5324998 1.2366375 60 15
1.2468396 -0.82182705 -0.40013427 9 0
3.183625 -2.0992138 0.06656348 61 8
1.4412689 -0.95070273 -0.39861327 7 1
3.1903155 -2.1060231 0.20034206 56 9
1.7037946 -1.1251529 -0.39688274 6 2
3.2150514 -2.1239638 0.33711842 49 10
2.1094394 -1.3940907 -0.40047228 6 3
3.1611397 -2.0899329 0.46529719 43 11
2.2813225 -1.5094018 -0.33587193 70 4
3.1215172 -2.0660872 0.59288669 69 12
2.2925024 -1.5179495 -0.24054985 66 5
3.109828 -2.0599117 0.72507423 37 13
2.2989726 -1.5239661 -0.14455192 54 6
3.0906389 -2.04953 0.85616374 37 14
2.2895801 -1.5188904 -0.047959212 54 7
3.8534775 -2.5573373 1.2392256 65 15
1.2298032 -0.81955677 -0.39599317 9 0
3.1796145 -2.1197379 0.066703096 59 8
1.4429235 -0.96231043 -0.40041289 7 1
3.1862605 -2.1265786 0.20076075 56 9
1.7078743 -1.1403029 -0.39917243 6 2
3.2075737 -2.1424222 0.33746704 49 10
2.1023562 -1.4047496 -0.40047228 6 3
3.1587725 -2.1114218 0.46651587 42 11
2.2918031 -1.5330701 -0.33855307 71 4
3.1110198 -2.0818603 0.59288669 60 12
2.2864454 -1.5306418 -0.24072415 64 5
3.0960999 -2.0734406 0.72431099 53 13
2.294548 -1.5378064 -0.14476126 53 6
3.0591836 -2.0510392 0.85031497 37 14
2.2951488 -1.5393703 -0.048238453 54 7
3.8404844 -2.5768085 1.2392256 65 15
1.2256395 -0.82577074 -0.39599317 9 0
3.1738193 -2.1391566 0.066807814 63 8
1.4378653 -0.96985233 -0.40041289 7 1
3.1903563 -2.1527326 0.20170279 55 9
1.7020808 -1.1489327 -0.39917243 6 2
3.2032933 -2.16309 0.33816427 55 10
2.0818787 -1.4068897 -0.39796934 6 3
3.1542525 -2.1323793 0.46749085 30 11
2.2988136 -1.5546591 -0.34074673 67 4
3.1086237 -2.1031141 0.59445107 61 12
2.2882986 -1.5492946 -0.24177003 64 5
3.0705714 -2.079715 0.7208764 56 13
2.2999628 -1.558363 -0.14559864 53 6
3.0358584 -2.0577497 0.84671575 40 14
2.2969868 -1.5581019 -0.048447877 54 7
3.8493202 -2.6120684 1.2464726 64 15
1.2212989 -0.83217692 -0.39599317 9 0
3.1708372 -2.161377 0.066982336 59 8
1.4231083 -0.97077864 -0.39771348 7 1
3.1856401 -2.1739109 0.20212148 55 9
1.6895559 -1.1534014 -0.39764598 6 2
3.2116675 -2.1933162 0.34025604 52 10
2.0646985 -1.4110835 -0.39609212 6 3
3.1446829 -2.1499863 0.46773461 37 11
2.2939188 -1.5689155 -0.34123421 61 4
3.0877872 -2.1126692 0.59257382 49 12
2.2965946 -1.5725111 -0.24351314 61 5
3.0547807 -2.0924354 0.71973157 53 13
2.2950668 -1.572642 -0.14580798 53 6
3.0427234 -2.085737 0.85166472 81 14
2.3052869 -1.5814198 -0.048796929 52 7
3.8547046 -2.6453044 1.2526842 64 15
1.2201064 -0.84075248 -0.39702842 7 0
3.1677091 -2.1836243 0.067156859 57 8
1.421214 -0.98042983 -0.39861327 7 1
3.1758575 -2.1916955 0.20222615 52 9
1.6834936 -1.1622319 -0.39764598 7 2
3.2132545 -2.2191601 0.34165049 51 10
2.071907 -1.4319829 -0.39890796 6 3
3.1382809 -2.1698089 0.46846578 41 11
2.28404 -1.5797756 -0.34099045 60 4
3.0783076 -2.1299319 0.59288669 45 12
2.2932436 -1.5879173 -0.24403608 58 5
3.0744469 -2.129642 0.7269823 49 13
2.2982929 -1.5926005 -0.1465407 51 6
3.0189486 -2.0927584 0.8480655 66 14
2.3117626 -1.6037267 -0.049111072 50 7
3.8630204 -2.6808712 1.2599311 65 15
1.2283676 -0.85596514 -0.40116954 9 0
3.1709962 -2.2104723 0.067471005 56 8
1.4128644 -0.98562795 -0.39771348 7 1
3.1807172 -2.2197244 0.20327288 52 9
1.6709462 -1.1665355 -0.39611951 7 2
3.2113919 -2.2427988 0.34269637 54 10
2.054666 -1.436022 -0.39703071 6 3
3.1398919 -2.1953108 0.47041571 37 11
2.2871239 -1.5996772 -0.34269661 61 4
3.0800614 -2.1550803 0.59538966 49 12
2.2963223 -1.6079023 -0.24525626 61 5
3.072902 -2.1524684 0.72927201 49 13
2.2997363 -1.6114894 -0.14716873 51 6
3.0095451 -2.1096551 0.84851533 60 14
2.2967856 -1.6112155 -0.048971456 49 7
3.8600001 -2.7088292 1.2635547 67 15
1.2082256 -0.85104674 -0.39599317 7 0
3.1744792 -2.2368605 0.067785151 60 8
1.4110428 -0.9950124 -0.39861327 7 1
3.1824975 -2.2450054 0.20411025 52 9
1.6714365 -1.1795056 -0.39764598 6 2
3.2032545 -2.2613223 0.343045 46 10
2.0731852 -1.4646399 -0.40203664 6 3
3.1481938 -2.2249231 0.47334057 41 11
2.2919652 -1.6204007 -0.34464651 61 4
3.0787907 -2.1774862 0.59726685 46 12
2.2930336 -1.6229573 -0.24577919 62 5
3.0715818 -2.1748011 0.73156172 46 13
2.3062191 -1.6334983 -0.14811078 54 6
3.014729 -2.1361275 0.85301441 66 14
2.3000197 -1.6309166 -0.049215786 48 7
3.8509667 -2.7316849 1.2651075 65 15
1.2100471 -0.8618443 -0.39806372 7 0
3.1659808 -2.2557721 0.067854956 60 8
1.4089872 -1.0046496 -0.3995131 6 1
3.1853333 -2.2720761 0.2050523 50 9
1.6636395 -1.1871008 -0.39726433 7 2
3.1978569 -2.2826939 0.34374225 49 10
2.0365551 -1.4548069 -0.39640498 6 3
3.1381159 -2.2425308 0.47358429 35 11
2.2963686 -1.6416146 -0.34659645 63 4
3.0737746 -2.198173 0.59851831 48 12
2.2926054 -1.6407392 -0.24665076 59 5
3.0633452 -2.1931396 0.73232496 44 13
2.3138721 -1.6571807 -0.14915749 53 6
3.0193443 -2.1632328 0.85751343 55 14
2.3060749 -1.6534238 -0.049529929 50 7
3.8554487 -2.7653222 1.2713192 65 15
1.2023826 -0.86591023 -0.39702842 7 0
3.1719735 -2.2851756 0.068238907 61 8
1.394223 -1.0051754 -0.39681366 7 1
3.1863523 -2.2980697 0.20588967 55 9
1.6605855 -1.1980927 -0.3980276 7 2
3.2052476 -2.3133986 0.34583399 46 10
2.0321126 -1.4677637 -0.39703071 6 3
3.1327672 -2.2635815 0.47455928 35 11
2.2990031 -1.6617559 -0.3483026 64 4
3.0814319 -2.2281265 0.60227275 43 12
2.296896 -1.6620647 -0.24804525 61 5
3.0597715 -2.214905 0.73423308 45 13
2.301928 -1.6669304 -0.14894815 53 6
3.0237579 -2.1904447 0.86201245 55 14
2.3119574 -1.676039 -0.049844075 53 7
3.8549917 -2.7956789 1.275978 63 15
1.1978322 -0.87219399 -0.39702842 7 0
3.163198 -2.3041074 0.068308719 56 8
1.3857913 -1.0101659 -0.39591387 7 1
3.1742761 -2.3147218 0.20588967 55 9
1.6558756 -1.2079281 -0.39840919 8 2
3.1963093 -2.3324986 0.34618258 42 10
2.0243998 -1.4783835 -0.39703071 6 3
3.1256809 -2.2834663 0.47529048 37 11
2.2918737 -1.674942 -0.34854636 63 4
3.076102 -2.2488935 0.60352427 43 12
2.299418 -1.6823034 -0.24926542 58 5
3.0592225 -2.2390122 0.73690438 39 13
2.3012264 -1.6848598 -0.14947151 52 6
3.0122476 -2.2062469 0.86201245 53 14
2.3128269 -1.695214 -0.0500535 51 7
3.8589962 -2.8295331 1.2821896 59 15
1.193249 -0.87845385 -0.39702842 7 0
3.1704123 -2.3348682 0.068727575 59 8
1.3898954 -1.0243448 -0.39861327 7 1
3.1749737 -2.3407922 0.20672706 55 9
1.6353083 -1.2060939 -0.39497465 13 2
3.1968789 -2.3586655 0.3475771 42 10
2.0325227 -1.5006963 -0.40015942 6 3
3.1312463 -2.3127747 0.47797161 36 11
2.2974412 -1.6975363 -0.35073999 64 4
3.0674617 -2.2673175 0.60415 39 12
2.2985871 -1.7002441 -0.25013697 56 5
3.0679734 -2.2701809 0.7418654 41 13
2.3100312 -1.7099569 -0.15062289 53 6
3.0116169 -2.2301068 0.86516178 52 14
2.2958856 -1.7013479 -0.049878977 51 7
3.8565435 -2.8589032 1.2863307 63 15
1.1886332 -0.88468957 -0.39702842 7 0
3.1773906 -2.3657668 0.069146432 61 8
1.3813877 -1.0292796 -0.39771348 7 1
3.1786871 -2.3693204 0.20777377 55 9
1.6399878 -1.2228546 -0.39764598 14 2
3.1860824 -2.3765631 0.34775141 45 10
2.0119734 -1.5018647 -0.39765644 6 3
3.1318181 -2.3386395 0.47992152 38 11
2.294883 -1.7142944 -0.35171497 62 4
3.0618775 -2.2880774 0.60540146 37 12
2.2896531 -1.7122562 -0.25013697 56 5
3.0591888 -2.2885656 0.74262863 38 13
2.3154378 -1.7327989 -0.15156494 52 6
3.0154989 -2.2575235 0.86966079 52 14
2.3061507 -1.7277337 -0.050297838 51 7
3.8477046 -2.8836908 1.2884012 61 15
1.17781 -0.88625491 -0.39495787 7 0
3.1617649 -2.379966 0.069076627 56 8
1.3855008 -1.0432917 -0.40041289 6 1
3.1821887 -2.3979509 0.20882049 55 9
1.636698 -1.2337884 -0.39840919 14 2
3.1910932 -2.4064081 0.34966883 45 10
2.0011919 -1.5096498 -0.39703071 6 3
3.1385419 -2.3693581 0.48284638 40 11
2.308053 -1.7430351 -0.35512727 66 4
3.0656166 -2.3159852 0.6085301 60 12
2.2936735 -1.7334334 -0.25153148 56 5
3.0534272 -2.309289 0.74415511 41 13
2.3158898 -1.7521292 -0.15219298 52 6
3.0191762 -2.285042 0.87415981 52 14
2.3117251 -1.7502476 -0.050611977 52 7
3.8469198 -2.9136267 1.2930601 65 15
1.1731535 -0.89240974 -0.39495787 7 0
3.1619909 -2.4061761 0.069355868 56 8
1.3645134 -1.0387281 -0.39591387 6 1
3.1859007 -2.4261274 0.20986721 58 9
1.6382409 -1.248005 -0.40031728 19 2
3.199048 -2.4387865 0.35193488 50 10
1.9964013 -1.5225029 -0.39765644 6 3
3.1233532 -2.3828051 0.4823589 36 11
2.2976234 -1.7534906 -0.35488355 67 4
3.0691469 -2.3439949 0.61165881 66 12
2.2988148 -1.7563055 -0.25310028 58 5
3.052619 -2.3330591 0.74682647 38 13
2.3085785 -1.7650414 -0.15229765 53 6
3.0245988 -2.3133171 0.87910873 47 14
2.3215845 -1.7769123 -0.051030833 53 7
3.8469505 -2.9454734 1.2982364 65 15
1.1778114 -0.90540045 -0.39806372 7 0
3.1640382 -2.4331203 0.069670007 57 8
1.3652334 -1.0506122 -0.39771348 7 1
3.1731541 -2.4427752 0.20986721 55 9
1.6410168 -1.2637531 -0.40260699 19 2
3.2024465 -2.4671063 0.35367799 48 10
1.9868381 -1.5317291 -0.39734361 6 3
3.1234095 -2.4088244 0.48430881 38 11
2.2915542 -1.7679218 -0.35537103 67 4
3.0603716 -2.361913 0.6122846 57 12
2.3006253 -1.7768427 -0.25432047 61 5
3.0558972 -2.3610137 0.75064266 38 13
2.3087869 -1.7844332 -0.15292569 54 6
3.012445 -2.3291221 0.87910873 48 14
2.3217382 -1.7963859 -0.051240265 51 7
3.8666127 -2.9927719 1.310142 68 15
1.1761053 -0.91392571 -0.39909899 7 0
3.1717794 -2.4656086 0.070123769 61 8
1.3689425 -1.0649254 -0.40041289 6 1
3.1697774 -2.4667161 0.21049525 55 9
1.6250821 -1.2650919 -0.40031728 15 2
3.2052045 -2.4960823 0.3554211 47 10
1.9865811 -1.5481825 -0.39890796 6 3
3.1264098 -2.4373507 0.48674619 38 11
2.2994847 -1.7933248 -0.35805216 64 4
3.0541925 -2.3827648 0.61353606 36 12
2.2991424 -1.794995 -0.25519201 58 5
3.0605133 -2.3902745 0.75484043 42 13
2.3135767 -1.8075641 -0.15386772 51 6
3.0217042 -2.3616636 0.88540733 34 14
2.3123009 -1.8085178 -0.051240265 52 7
3.8615394 -3.0213091 1.3137655 65 15
1.1621888 -0.91291118 -0.39599317 7 0
3.166688 -2.4883599 0.070298299 60 8
1.3602842 -1.0696694 -0.3995131 6 1
3.1772258 -2.4993322 0.21185598 54 9
1.6076361 -1.265085 -0.39764598 7 2
3.1936572 -2.5140629 0.35559544 45 10
1.9784478 -1.5585629 -0.39890796 6 3
3.1323144 -2.4684312 0.48967105 39 11
2.2994168 -1.812714 -0.35951459 62 4
3.0494299 -2.4048398 0.61510038 37 12
2.2928405 -1.8094771 -0.25554064 58 5
3.05566 -2.412349 0.7567485 39 13
2.3260243 -1.8369831 -0.15533313 50 6
3.0398796 -2.4016137 0.89440536 16 14
2.3184865 -1.8330019 -0.051589314 52 7
3.8532436 -3.0474787 1.3163538 63 15
1.1513411 -0.91417873 -0.3939226 7 0
3.1567466 -2.5073934 0.070368104 60 8
1.3546648 -1.0767771 -0.3995131 6 1
3.1828549 -2.5308502 0.21311203 51 9
1.6009902 -1.2734851 -0.39764598 7 2
3.1929216 -2.5406747 0.35698992 45 10
1.9609882 -1.5615176 -0.39703071 6 3
3.1255574 -2.4897456 0.490646 37 11
2.3116286 -1.8420485 -0.36292693 60 4
3.0553324 -2.4355493 0.61885482 40 12
2.3004675 -1.8351246 -0.25745806 59 5
3.0537293 -2.4368875 0.75941986 41 13
2.3226175 -1.854121 -0.15575182 50 6
3.120152 -2.4916763 0.92184937 11 14
2.3135436 -1.8488616 -0.051694028 51 7
3.859868 -3.0857067 1.3241183 65 15
1.1616049 -0.93228644 -0.39909899 7 0
3.152931 -2.5313993 0.070577532 60 8
1.34597 -1.0814142 -0.39861327 7 1
3.1742299 -2.5512342 0.21342604 49 9
1.5881803 -1.2769297 -0.39611951 6 2
3.1966527 -2.5710933 0.35890734 42 10
1.9543244 -1.5730025 -0.39734361 6 3
3.1263945 -2.5172813 0.49283966 35 11
2.3112278 -1.861598 -0.36438939 58 4
3.0609963 -2.4663863 0.62260926 37 12
2.3063374 -1.8596506 -0.25920117 59 5
3.0592651 -2.4676344 0.76399928 45 13
2.3175409 -1.8700194 -0.15606584 50 6
3.1934967 -2.5777473 0.94749385 13 14
2.3318317 -1.8835678 -0.052322313 48 7
3.8586845 -3.1180162 1.3292947 64 15
1.1567075 -0.9383558 -0.39909899 7 0
3.1567132 -2.5617337 0.070961483 58 8
1.3281872 -1.0786189 -0.39501405 6 1
3.163929 -2.5703382 0.2136354 48 9
1.5875667 -1.2901804 -0.39764598 6 2
3.2047906 -2.6053917 0.36134771 40 10
1.9491259 -1.5857067 -0.39796934 6 3
3.1162505 -2.5361223 0.49332717 35 11
2.2999096 -1.8724207 -0.36414564 56 4
3.0572305 -2.4898641 0.62448645 37 12
2.3120129 -1.8842882 -0.26094431 59 5
3.0569541 -2.4923027 0.76667058 42 13
2.3170042 -1.8897026 -0.15669388 49 6
3.2433736 -2.6461737 0.96638966 13 14
2.3203883 -1.8944865 -0.052287407 46 7
3.861757 -3.1540639 1.3360239 59 15
1.1547664 -0.94684929 -0.40013427 7 0
3.1633563 -2.5947137 0.071415246 60 8
1.3347629 -1.0952166 -0.39861327 6 1
3.1612325 -2.5957417 0.2143681 46 9
1.5656191 -1.2860138 -0.39382979 7 2
3.1926441 -2.6234009 0.36152202 40 10
1.9441267 -1.5980606 -0.39859506 6 3
3.1228588 -2.5687983 0.49649575 34 11
2.3084681 -1.8995734 -0.3670705 56 4
3.0548275 -2.5146255 0.6266765 35 12
2.3101366 -1.9022986 -0.26181585 58 5
3.071135 -2.5307481 0.77353972 42 13
2.3255715 -1.9170533 -0.15794992 55 6
3.2610471 -2.6891556 0.97583771 10 14
2.3123126 -1.9074794 -0.052322313 45 7
3.8621335 -3.1870952 1.341718 64 15
1.1408681 -0.94548625 -0.39702842 7 0
3.1605039 -2.6201758 0.071659587 61 8
1.3290101 -1.1021905 -0.39861327 6 1
3.1711104 -2.6308374 0.21593818 49 9
1.5681545 -1.3014445 -0.39611951 6 2
3.1941915 -2.6528106 0.36326513 39 10
1.9494076 -1.6195792 -0.40141091 6 3
3.1357701 -2.6061411 0.50063932 37 11
2.3110356 -1.9213855 -0.3690204 56 4
3.0719898 -2.5558541 0.63293391 30 12
2.3032069 -1.9169174 -0.26216447 58 5
3.0613036 -2.5487719 0.7743029 39 13
2.3265815 -1.9377468 -0.15868263 52 6
3.2938073 -2.7442968 0.9897846 1 14
2.3191881 -1.9336467 -0.052706268 47 7
3.8513274 -3.2122228 1.3437886 64 15
1.1301433 -0.94628781 -0.39495787 7 0
3.1533332 -2.6412749 0.071799204 57 8
1.3321817 -1.116645 -0.40131268 6 1
3.1710663 -2.6589549 0.21688022 54 9
1.5613185 -1.3096375 -0.39611951 6 2
3.1898813 -2.6766281 0.36431101 39 10
1.9151834 -1.6081693 -0.39609212 6 3
3.1281614 -2.6276314 0.50161427 37 11
2.3161414 -1.9462303 -0.37145779 51 4
3.10589 -2.6107733 0.6426329 34 12
2.311435 -1.9443412 -0.26425621 58 5
3.052423 -2.568558 0.77544779 40 13
2.3301554 -1.9614781 -0.15962468 55 6
3.8711743 -3.2598312 1.1683958 54 14
2.3243237 -1.9586492 -0.053055316 46 7
3.8492265 -3.2447956 1.3489649 65 15
1.1340212 -0.95967996 -0.39806372 7 0
3.1531961 -2.6693776 0.072113343 60 8
1.3173953 -1.1160471 -0.39861327 6 1
3.1738613 -2.6897259 0.21803163 55 9
1.5514448 -1.3152554 -0.39535624 6 2
3.1970963 -2.7113345 0.36675134 37 10
1.909749 -1.6207314 -0.39671785 6 3
3.1189001 -2.6478283 0.5023455 35 11
2.3195369 -1.969896 -0.37365144 54 4
3.1192756 -2.6500211 0.64826447 40 12
2.3148842 -1.9680318 -0.265825 56 5
3.0479054 -2.5921366 0.7777375 36 13
2.3213742 -1.9749458 -0.15972935 56 6
3.858505 -3.2838449 1.1697454 54 14
2.3292601 -1.983758 -0.053404365 46 7
3.8542411 -3.2836978 1.3567295 67 15
1.1348531 -0.97062719 -0.40013427 7 0
3.1528516 -2.6975515 0.072427489 57 8
1.3115337 -1.1229297 -0.39861327 6 1
3.1627679 -2.7089055 0.21824095 55 9
1.5505005 -1.3284702 -0.39688274 6 2
3.2010095 -2.7435966 0.36884311 37 10
1.8967388 -1.6268504 -0.39577925 6 3
3.1140332 -2.6718786 0.5038079 34 11
2.3061781 -1.9794281 -0.37316394 53 4
3.1233423 -2.6817591 0.6520189 37 12
2.3136148 -1.987916 -0.26687086 55 5
3.0581131 -2.6285355 0.7838434 36 13
2.3231173 -1.9974905 -0.16056673 56 6
3.8560319 -3.3167109 1.1742445 54 14
2.3309662 -2.0063629 -0.053683605 46 7
3.8662744 -3.3290441 1.3670822 67 15
1.1356014 -0.98160917 -0.40220481 9 0
3.1628857 -2.7349498 0.072985962 63 8
1.3085835 -1.1323317 -0.3995131 7 1
3.1560917 -2.7319643 0.21876432 51 9
1.5435234 -1.3365705 -0.39688274 6 2
3.3311713 -2.8855512 0.38557699 22 10
1.9001356 -1.6471102 -0.39828217 6 3
3.1194968 -2.7050536 0.50697654 35 11
2.3137767 -2.0070853 -0.37608883 66 4
3.1122417 -2.7006657 0.65264469 32 12
2.316714 -2.01176 -0.26843968 58 5
3.0769155 -2.6728368 0.79223901 58 13
2.3277023 -2.0227273 -0.16161345 57 6
3.8533204 -3.3496404 1.1787435 56 14
2.3204288 -2.0185404 -0.053683605 49 7
3.8662784 -3.3644602 1.3732939 67 15
1.1158973 -0.97483206 -0.39702842 7 0
3.1545455 -2.7567368 0.073125578 53 8
1.3055706 -1.1417335 -0.40041289 6 1
3.1928535 -2.7931638 0.22232316 12 9
1.5246847 -1.3342906 -0.39382979 6 2
3.4839168 -3.0499389 0.4050999 49 10
1.8944572 -1.6596401 -0.39890796 6 3
3.1306705 -2.7435915 0.51112008 34 11
2.307714 -2.0230985 -0.37682006 56 4
3.1099393 -2.7273436 0.65514761 26 12
2.3091438 -2.0264912 -0.26878831 54 5
3.0628784 -2.6889107 0.79223901 55 13
2.3245831 -2.0414772 -0.16213681 55 6
3.8576894 -3.3890626 1.1854922 55 14
2.3203406 -2.0399048 -0.053927936 50 7
3.8631163 -3.3974156 1.3784703 63 15
1.1078815 -0.97810435 -0.39599317 7 0
3.1850331 -2.812928 0.074172728 60 8
1.3083357 -1.156297 -0.40311229 6 1
3.2260673 -2.852176 0.22567266 6 9
1.5294424 -1.3526605 -0.39688274 6 2
3.3709056 -2.9823256 0.39376962 19 10
1.8709513 -1.6564424 -0.39577925 6 3
3.1236928 -2.7665267 0.51233876 11 11
2.3208625 -2.0562162 -0.38071984 56 4
3.1724896 -2.8117208 0.67141682 1 12
2.3089354 -2.0478079 -0.27000847 55 5
3.0561004 -2.7114255 0.79414707 54 13
2.3287997 -2.0668783 -0.16318353 56 6
3.8602929 -3.4273283 1.1917907 54 14
2.3230822 -2.0639794 -0.054242078 46 7
3.8524942 -3.4240129 1.3810586 57 15
1.105628 -0.98646396 -0.39702842 7 0
3.250823 -2.9014704 0.076057591 24 8
1.2877291 -1.1501501 -0.39861327 7 1
3.4881124 -3.1165419 0.24514163 37 9
1.5311215 -1.3684999 -0.39917243 7 2
3.3760381 -3.0185263 0.39620999 19 10
1.8681411 -1.6714846 -0.39703071 6 3
3.8295083 -3.4275854 0.63103956 63 11
2.3189383 -2.0762849 -0.3821823 57 4
3.8537183 -3.4516778 0.81940383 56 12
2.3145018 -2.0744972 -0.2719259 54 5
3.053555 -2.7378745 0.79719996 27 13
2.3298404 -2.0897124 -0.1640209 55 6
3.8626013 -3.4657135 1.1980894 51 14
2.3330746 -2.0948186 -0.054730747 47 7
3.8589458 -3.466083 1.3898584 61 15
1.114795 -1.0051762 -0.40220481 9 0
3.2415261 -2.9238093 0.076197207 47 8
1.2816894 -1.1568768 -0.39861327 7 1
3.4880528 -3.1494861 0.24629304 45 9
1.5195645 -1.3725502 -0.3980276 7 2
3.3912315 -3.0642128 0.39987054 15 10
1.8622938 -1.6838927 -0.39765644 6 3
3.8438976 -3.4768851 0.63640177 69 11
2.3153946 -2.0950577 -0.38340098 60 4
3.8546317 -3.4890418 0.82347113 54 12
2.3139448 -2.0959504 -0.27314609 52 5
3.8728058 -3.5091832 1.0158671 73 13
2.3247859 -2.1072481 -0.16443959 56 6
3.8530638 -3.4937446 1.2007887 51 14
2.3294787 -2.1137245 -0.054905269 42 7
3.8664925 -3.5096123 1.3991758 61 15
1.0980933 -1.0005902 -0.39806372 7 0
3.2424293 -2.9555597 0.076581158 42 8
1.2729377 -1.1607232 -0.39771348 7 1
3.4803667 -3.1757841 0.24692108 32 9
1.5022069 -1.3712226 -0.39535624 6 2
3.3869112 -3.0926745 0.40126503 15 10
1.8566642 -1.6959617 -0.39828217 6 3
3.8555586 -3.5230777 0.64127654 70 11
2.3117185 -2.1138504 -0.38461968 57 4
3.8465128 -3.5185094 0.82566124 52 12
2.3297644 -2.1318457 -0.27628368 55 5
3.8723726 -3.544647 1.0204465 73 13
2.331394 -2.1355805 -0.16569565 54 6
3.851959 -3.5296698 1.2061876 54 14
2.3261209 -2.1322439 -0.055079795 42 7
3.8600707 -3.5395827 1.403317 61 15
1.0901721 -1.0035185 -0.39702842 7 0
3.2406676 -2.9841247 0.076895304 40 8
1.278513 -1.1777135 -0.40131268 7 1
3.4892128 -3.2163715 0.2487005 37 9
1.5024636 -1.3854629 -0.39726433 7 2
3.385859 -3.1232867 0.40300813 15 10
1.8538635 -1.7106959 -0.39953369 6 3
3.8551812 -3.5587049 0.6442014 69 11
2.321404 -2.1443813 -0.38803205 56 4
3.8533185 -3.5607238 0.83098 56 12
2.3218706 -2.1463151 -0.27663234 55 5
3.8543818 -3.5642016 1.0204465 71 13
2.338146 -2.1636314 -0.16695172 52 6
3.8640759 -3.5769212 1.2156355 57 14
2.3197005 -2.1480663 -0.05518451 42 7
3.8605299 -3.5761414 1.4100462 65 15
1.0765907 -1.0011302 -0.3939226 7 0
3.2357709 -3.0100224 0.077139638 40 8
1.2694761 -1.1817361 -0.40041289 7 1
3.5021217 -3.2612128 0.25079393 42 9
1.4968687 -1.394388 -0.39764598 7 2
3.3802106 -3.1498923 0.4042283 19 10
1.8304337 -1.7069072 -0.39640498 6 3
3.858269 -3.599153 0.64785749 72 11
2.3250339 -2.169647 -0.39046943 52 4
3.8540189 -3.5977049 0.8350473 58 12
2.3251603 -2.1720438 -0.27837545 55 5
3.85288 -3.6004193 1.025026 71 13
2.3344603 -2.1822577 -0.16747507 51 6
3.8658493 -3.6150672 1.2219341 50 14
2.3186421 -2.1697471 -0.055428844 41 7
3.8629069 -3.6161091 1.4178108 62 15
1.0825964 -1.017337 -0.39806372 9 0
3.2301652 -3.0365112 0.077383965 38 8
1.2519159 -1.1776849 -0.39681366 7 1
3.4879072 -3.2822428 0.25100327 37 9
1.4852588 -1.3981695 -0.39650109 7 2
3.3941319 -3.1962318 0.40788889 15 10
1.8243468 -1.7191772 -0.39703071 6 3
3.843704 -3.62339 0.64858866 70 11
2.3280842 -2.1954103 -0.39290681 51 4
3.8552454 -3.6368122 0.83942741 58 12
2.3224485 -2.1923945 -0.2794213 55 5
3.8511047 -3.6367192 1.0296054 71 13
2.3302612 -2.2013083 -0.16799843 49 6
3.8666973 -3.6539974 1.2282327 51 14
2.3319495 -2.205215 -0.056022223 42 7
3.8691816 -3.6601825 1.4271283 62 15
1.0800564 -1.0256521 -0.39909899 9 0
3.2359691 -3.0740414 0.07790754 39 8
1.2431139 -1.1813215 -0.39591387 7 1
3.4055443 -3.2385249 0.24629304 4 9
1.4736502 -1.4018675 -0.39535624 7 2
3.4091029 -3.2441764 0.41172373 1 10
1.8184832 -1.7311132 -0.39765644 6 3
3.8462391 -3.6640041 0.65224481 67 11
2.31512 -2.2062004 -0.39266306 53 4
3.8604565 -3.6801195 0.84474617 60 12
2.328625 -2.2206213 -0.28151307 52 5
3.8632567 -3.6866517 1.0380009 71 13
2.3288162 -2.2231333 -0.16873114 49 6
3.8559682 -3.6822689 1.2309321 51 14
2.3323257 -2.2280402 -0.056301463 43 7
3.8715563 -3.6997397 1.4348928 57 15
1.0718837 -1.028618 -0.39806372 9 0
3.2356975 -3.1061759 0.078291491 33 8
1.245345 -1.1959128 -0.39861327 7 1
3.2710016 -3.1422617 0.23770994 13 9
1.4637047 -1.4065877 -0.39459303 7 2
3.3059037 -3.1791201 0.40126503 7 10
1.813665 -1.7447193 -0.39859506 6 3
3.8061893 -3.6627777 0.64858866 49 11
2.3167949 -2.2302804 -0.39485672 52 4
3.8525162 -3.7112465 0.84724921 54 12
2.3270082 -2.2424612 -0.28273323 50 5
3.8671625 -3.7279589 1.0441068 64 13
2.3319111 -2.2487562 -0.16977786 49 6
3.8583188 -3.722033 1.2376807 49 14
2.3235056 -2.2429993 -0.056371275 42 7
3.8674181 -3.7347224 1.4405869 61 15
1.0583411 -1.0259622 -0.39495787 7 0
3.2342899 -3.1364348 0.078640543 28 8
1.250254 -1.2132741 -0.4022125 7 1
3.3705823 -3.2720296 0.24618836 45 9
1.4605452 -1.4183356 -0.39573789 7 2
3.404098 -3.306874 0.41520998 5 10
1.8073379 -1.7569455 -0.39922079 6 3
3.6489151 -3.5484149 0.62494606 57 11
2.3207374 -2.2576065 -0.39753783 49 4
3.854918 -3.7513628 0.85194218 52 12
2.3209445 -2.2601745 -0.28343046 48 5
3.8672786 -3.7673359 1.0494496 61 13
2.3372693 -2.277662 -0.17103392 49 6
3.8638947 -3.7666693 1.2457789 48 14
2.3289063 -2.2718909 -0.056790132 48 7
3.8588707 -3.7657142 1.444728 62 15
1.0501947 -1.0287858 -0.3939226 7 0
3.2235365 -3.1589248 0.078780167 37 8
1.2383188 -1.2143461 -0.40041289 7 1
3.3847711 -3.3204041 0.24849114 4 9
1.4559014 -1.4287137 -0.39650109 7 2
3.4066422 -3.3441932 0.41765031 3 10
1.7797943 -1.7483885 -0.39515349 6 3
3.8539927 -3.787308 0.66345674 60 11
2.3202097 -2.2808597 -0.39948773 46 4
3.8633919 -3.7991965 0.85819954 50 12
2.3232794 -2.2862706 -0.28517357 48 5
3.8614907 -3.8013058 1.0532657 69 13
2.3395424 -2.3038824 -0.17208064 49 6
3.864944 -3.8073628 1.2525275 50 14
2.3283715 -2.2952845 -0.057069372 47 7
3.8624849 -3.8089273 1.4535278 65 15
1.0530312 -1.042425 -0.39702842 7 0
3.2268445 -3.1954587 0.079268835 37 8
1.2236384 -1.2125831 -0.39771348 7 1
3.3673394 -3.3380811 0.24849114 52 9
1.4456127 -1.4335523 -0.39573789 7 2
1.7818308 -1.7688167 -0.39765644 6 3
3.8580556 -3.8312147 0.66760033 70 11
2.3279519 -2.3125632 -0.4029001 41 4
3.8616624 -3.8374743 0.86226684 50 12
2.3282299 -2.3152628 -0.28726533 50 5
3.8651958 -3.8450105 1.0597532 71 13
2.3302784 -2.3189182 -0.17228998 50 6
3.8670535 -3.849545 1.2597259 51 14
2.3361552 -2.3272023 -0.057558037 48 7
3.8712251 -3.8577352 1.4643983 70 15
1.0475587 -1.0479243 -0.39702842 7 0
3.2312713 -3.2335281 0.079792403 41 8
1.2062565 -1.2079418 -0.39411426 7 1
3.3187716 -3.324569 0.24618836 58 9
1.4380867 -1.4411017 -0.39573789 7 2
1.7697557 -1.7753242 -0.39703071 6 3
3.8547568 -3.8682358 0.67052519 78 11
2.3102074 -2.3190951 -0.40192512 29 4
3.8624244 -3.8786371 0.86695993 50 12
2.3357506 -2.3471932 -0.28970569 53 5
3.8657792 -3.8860731 1.0654775 69 13
2.335005 -2.3480825 -0.17354605 50 6
3.8619566 -3.8849421 1.2646748 52 14
2.3422592 -2.3578453 -0.0580118 43 7
3.8768363 -3.9039967 1.4742333 71 15
1.0474919 -1.0588884 -0.39909899 7 0
3.2353878 -3.2717307 0.080315977 37 8
1.2056072 -1.2195753 -0.39591387 7 1
3.2872829 -3.327692 0.24514163 55 9
1.4250033 -1.443024 -0.39421138 7 2
1.7662973 -1.7898831 -0.39828217 6 3
3.8414195 -3.8954332 0.67174387 30 11
2.305001 -2.338228 -0.40314382 18 4
3.8559284 -3.9128778 0.87008858 52 12
2.3336282 -2.368921 -0.29092586 52 5
3.8701699 -3.9314454 1.0723467 69 13
2.3338857 -2.3716648 -0.17438343 50 6
3.8634284 -3.9273372 1.2718732 54 14
2.3330991 -2.3725216 -0.058081608 46 7
3.8746331 -3.9414787 1.4809626 62 15
1.0365275 -1.0588367 -0.39702842 9 0
3.2517793 -3.3229272 0.081153691 100 8
1.210107 -1.2370155 -0.3995131 7 1
3.2592268 -3.3328643 0.24430427 55 9
1.4231712 -1.4558337 -0.39573789 6 2
1.7624218 -1.8047602 -0.39953369 6 3
3.8715739 -3.9659638 0.68051845 36 11
2.3028419 -2.3598099 -0.40485001 14 4
3.856075 -3.9542272 0.87478167 50 12
2.3225834 -2.382534 -0.29110017 51 5
3.8707745 -3.9720738 1.0780709 63 13
2.3371816 -2.3991842 -0.17553481 52 6
3.870692 -3.9747639 1.2808713 53 14
2.3290126 -2.3933041 -0.058291037 46 7
3.862025 -3.9700205 1.4840684 62 15
1.0284663 -1.0612948 -0.39599317 9 0
3.2307448 -3.3350348 0.081048973 76 8
1.2090349 -1.2489351 -0.40131268 7 1
3.2292306 -3.336966 0.24336222 55 9
1.4114336 -1.4590323 -0.39459303 7 2
1.7364756 -1.7969174 -0.39577925 6 3
3.8728225 -4.0090241 0.68441826 33 11
2.2904544 -2.371835 -0.40485001 12 4
3.8634508 -4.0021181 0.88103902 53 12
2.3239095 -2.4090016 -0.29284328 51 5
3.8594637 -4.0021787 1.0807421 61 13
2.3412216 -2.4286437 -0.17679088 51 6
3.87552 -4.0216379 1.2894194 44 14
2.3372557 -2.4270718 -0.058814611 43 7
3.8639612 -4.0138474 1.4928683 67 15
1.0255694 -1.069454 -0.39702842 9 0
3.1938651 -3.3316956 0.080560312 88 8
1.1943907 -1.2468051 -0.39861327 7 1
3.2048075 -3.346616 0.24283887 70 9
1.4092056 -1.4720753 -0.39611951 7 2
1.7325042 -1.8116956 -0.39703071 6 3
3.8709824 -4.049336 0.68783063 31 11
2.2711468 -2.3766193 -0.4036313 11 4
3.8629105 -4.0437174 0.88573205 53 12
2.3305249 -2.4413128 -0.29528365 50 5
3.8614967 -4.0464773 1.0872297 63 13
2.3339877 -2.4466496 -0.17720957 50 6
3.870548 -4.0587983 1.2948182 44 14
2.3410702 -2.4566479 -0.059233464 43 7
3.8708744 -4.0633984 1.5037388 70 15
1.0252749 -1.0804143 -0.39909899 7 0
3.1805053 -3.352725 0.080665022 78 8
1.1824832 -1.2473847 -0.39681366 7 1
3.1707551 -3.3459535 0.2415828 52 9
1.4001282 -1.4780084 -0.39573789 7 2
1.7148479 -1.8121333 -0.39515349 6 3
3.8633685 -4.0839696 0.69026798 28 11
2.2491243 -2.378382 -0.40192512 10 4
3.8647537 -4.0882916 0.89105082 48 12
2.3368649 -2.4737585 -0.29772401 51 5
3.8712592 -4.0994706 1.096007 69 13
2.3321135 -2.4704556 -0.17804694 51 6
3.8693051 -4.1002679 1.3015668 47 14
2.3391504 -2.4805107 -0.059512705 41 7
3.8720732 -4.1075072 1.5125386 72 15
1.019604 -1.0857679 -0.39909899 7 0
3.1793306 -3.3868275 0.081083886 74 8
1.1812688 -1.2592441 -0.39861327 7 1
3.1668546 -3.377079 0.24262951 57 9
1.385657 -1.4781576 -0.39382979 7 2
3.4713006 -3.7043259 0.44414565 80 10
1.7134377 -1.8297385 -0.39703071 6 3
3.8622816 -4.1258802 0.69392407 33 11
2.2379968 -2.3915753 -0.40216887 9 4
3.8594885 -4.125782 0.89480525 53 12
2.3334043 -2.4961486 -0.29894418 48 5
3.8752096 -4.1469383 1.1032577 67 13
2.3409607 -2.505985 -0.1797217 51 6
3.8637438 -4.1375632 1.3069657 48 14
2.3274951 -2.4941866 -0.059547611 39 7
3.8742332 -4.1531525 1.521856 67 15
1.0007545 -1.0769399 -0.3939226 9 0
3.1819685 -3.4254048 0.081607454 70 8
1.1775322 -1.2680629 -0.3995131 6 1
3.1722243 -3.4185023 0.24440894 60 9
1.3819038 -1.4897105 -0.39497465 7 2
3.4626951 -3.7341378 0.44554016 73 10
1.7122121 -1.8470798 -0.39890796 6 3
3.8770487 -4.1853662 0.70050502 37 11
2.2281411 -2.4061737 -0.40265635 9 4
3.8593035 -4.1691275 0.89981115 59 12
2.3315659 -2.5196257 -0.30033869 49 5
3.8694382 -4.1844692 1.1078371 67 13
2.3440764 -2.5358074 -0.18097776 51 6
3.863188 -4.1806364 1.3141642 50 14
2.3324804 -2.5250309 -0.060001373 43 7
3.8715107 -4.1925788 1.529103 65 15
0.98987144 -1.0764769 -0.39185205 7 0
3.1694026 -3.447907 0.08174707 70 8
1.1761507 -1.2799507 -0.40131268 7 1
3.1737967 -3.4551072 0.24587436 53 9
1.3809855 -1.5039161 -0.39688274 7 2
3.4538722 -3.7639611 0.44693464 84 10
1.6918349 -1.8443738 -0.39640498 6 3
3.8759396 -4.2268825 0.70416111 42 11
2.2212994 -2.4232736 -0.4036313 9 4
3.8627727 -4.2169538 0.9057557 55 12
2.3317964 -2.5464935 -0.30208179 48 5
3.8641164 -4.2213783 1.1124165 63 13
2.3446944 -2.5623741 -0.18202448 50 6
3.8761759 -4.2375212 1.3258615 49 14
2.3340683 -2.5534449 -0.060385328 40 7
3.8664467 -4.2313323 1.5358323 62 15
1.0000151 -1.0986171 -0.39806372 7 0
3.1734438 -3.4875693 0.082305551 70 8
1.1563227 -1.2716733 -0.39681366 6 1
3.1811869 -3.4997582 0.2478631 61 9
1.3664906 -1.5038613 -0.39497465 7 2
3.4642484 -3.8138402 0.45076951 56 10
1.6794991 -1.8502818 -0.39577925 6 3
3.8497531 -4.2427087 0.70342994 37 11
2.2059135 -2.4319303 -0.40314382 9 4
3.8679171 -4.2657185 0.91201305 55 12
2.3318095 -2.5734322 -0.3038249 47 5
3.8617308 -4.2633791 1.1181407 58 13
2.3392892 -2.583499 -0.1826525 50 6
3.8748589 -4.2808757 1.3330599 48 14
2.3394468 -2.5863931 -0.060873993 40 7
3.8727431 -4.2830434 1.5472202 68 15
0.99942076 -1.1095796 -0.40013427 7 0
3.1778862 -3.5294006 0.08289893 74 8
1.1522553 -1.2806078 -0.39771348 6 1
3.1721683 -3.5267615 0.2485958 60 9
1.3651612 -1.5182952 -0.39688274 7 2
3.8624413 -4.2972107 0.5055033 12 10
1.6671481 -1.8561109 -0.39515349 6 3
3.8659461 -4.3056421 0.71049833 57 11
2.1838679 -2.4331062 -0.40143764 8 4
3.8666368 -4.3094368 0.91701895 53 12
2.3395841 -2.6093407 -0.30661389 47 5
3.8642516 -4.3113174 1.1253915 60 13
2.3377249 -2.6090994 -0.18359455 48 6
3.8679936 -4.3185248 1.3384588 46 14
2.3392088 -2.6135073 -0.061223041 43 7
3.8760266 -4.332056 1.5575731 73 15
0.98588502 -1.1061442 -0.39702842 7 0
3.1766562 -3.5654011 0.083352692 76 8
1.1455343 -1.2866234 -0.39771348 6 1
3.1669376 -3.5582421 0.24964255 53 9
1.3467525 -1.5136883 -0.39382979 7 2
1.6600314 -1.8677677 -0.39577925 9 3
3.8683996 -4.3540211 0.71512938 66 11
2.1737347 -2.4474757 -0.40192512 8 4
3.8584464 -4.3458724 0.92046052 48 12
2.3391125 -2.6364586 -0.308357 47 5
3.8689809 -4.3623366 1.1334054 61 13
2.3425817 -2.6422262 -0.18505996 48 6
3.8660092 -4.3620529 1.3456572 48 14
2.3334475 -2.6347015 -0.061432473 42 7
3.8776224 -4.3797736 1.5674082 72 15
0.96985728 -1.0997002 -0.39288735 7 0
3.1777809 -3.6044848 0.083876267 70 8
1.1387819 -1.2926037 -0.39771348 6 1
3.1733439 -3.6032534 0.25163129 55 9
1.3375111 -1.5192454 -0.39344814 6 2
3.8646162 -4.3912654 0.51177853 19 10
1.6515336 -1.8779172 -0.39609212 8 3
3.8691411 -4.401052 0.71951669 67 11
2.1608901 -2.4588237 -0.40192512 8 4
3.8591058 -4.3927279 0.92609209 53 12
2.3305337 -2.6546593 -0.30905426 47 5
3.8797562 -4.4208999 1.1433275 65 13
2.3458381 -2.673974 -0.18642069 46 6
3.8726697 -4.4159336 1.356005 55 14
2.3341179 -2.6634259 -0.06181642 36 7
3.8737321 -4.421813 1.5751728 75 15
0.96662641 -1.1076742 -0.3939226 7 0
3.1746392 -3.6391568 0.084295124 65 8
1.1371204 -1.3044243 -0.3995131 7 1
3.1793647 -3.6484289 0.25362006 52 9
1.3321172 -1.5291883 -0.39421138 6 2
3.8651226 -4.4384866 0.51491612 59 10
1.6442717 -1.8895189 -0.39671785 9 3
3.8616788 -4.4392233 0.72244155 66 11
2.1479864 -2.4701045 -0.40192512 8 4
3.867156 -4.4486542 0.93360102 59 12
2.3257482 -2.6773543 -0.31027445 46 5
3.8668535 -4.4530129 1.1463805 61 13
2.3475163 -2.704319 -0.18767676 46 6
3.8750391 -4.4655871 1.365003 56 14
2.3345511 -2.6922295 -0.062200375 33 7
3.8783646 -4.4741492 1.5865607 73 15
0.97091413 -1.1244179 -0.39806372 7 0
3.1725273 -3.6754086 0.084748887 55 8
1.122638 -1.3015065 -0.39681366 7 1
3.1810865 -3.6892276 0.25529483 45 9
1.3292195 -1.5420907 -0.39573789 6 2
3.8691413 -4.4903598 0.51857668 53 10
1.6369337 -1.9010965 -0.39734361 9 3
3.8603976 -4.4849586 0.72658509 69 11
2.1350234 -2.4813175 -0.40192512 8 4
3.8657084 -4.4943004 0.93891978 55 12
2.3350747 -2.7166924 -0.31341204 46 5
3.8677943 -4.5014911 1.1536313 60 13
2.3411326 -2.7256641 -0.1883048 43 6
3.8782632 -4.5168638 1.3744509 53 14
2.3321421 -2.718075 -0.062514521 36 7
3.8750083 -4.5178566 1.594843 68 15
0.97042918 -1.1350225 -0.40013427 7 0
3.3260267 -3.8915253 0.089356326 30 8
1.1162641 -1.3069773 -0.39681366 7 1
3.1759882 -3.7199187 0.25634155 43 9
1.3216674 -1.5485681 -0.39573789 6 2
3.8678417 -4.5334649 0.52136564 38 10
1.6250602 -1.9060668 -0.39671785 6 3
3.8628991 -4.5324759 0.73121613 73 11
2.1125729 -2.4796329 -0.39997521 8 4
3.871877 -4.5462236 0.94580293 55 12
2.3411403 -2.7508302 -0.31602672 48 5
3.8711934 -4.5502453 1.1612636 63 13
2.3420174 -2.7538083 -0.18945618 41 6
3.8687661 -4.5506096 1.3789499 53 14
2.3408411 -2.7553468 -0.0631079 42 7
3.8828964 -4.5720801 1.6072664 70 15
0.96197736 -1.1371382 -0.39909899 7 0
3.3895361 -4.0081358 0.091625139 27 8
1.1119212 -1.315781 -0.39771348 7 1
3.1848228 -3.7700627 0.25864434 48 9
1.3110077 -1.5524671 -0.39497465 6 2
3.657697 -4.3328991 0.4960905 2 10
1.6163316 -1.9160594 -0.39703071 6 3
3.8698268 -4.5890608 0.73706585 67 11
2.1046786 -2.4967315 -0.40095019 8 4
3.8645682 -4.5860715 0.94987023 53 12
2.3433883 -2.7828629 -0.31829277 46 5
3.8801875 -4.6095028 1.1711857 67 13
2.3314245 -2.770618 -0.18977019 36 6
3.8649569 -4.5946646 1.3861483 52 14
2.3328156 -2.7752194 -0.063282423 41 7
3.8763034 -4.6130538 1.6145133 75 15
0.94857049 -1.1332712 -0.39599317 7 0
3.4865615 -4.1669245 0.094836384 28 8
1.1127489 -1.3303608 -0.40041289 7 1
3.182971 -3.8081415 0.26010972 45 9
1.3028612 -1.5593102 -0.39497465 6 2
3.8610272 -4.622653 0.52694362 40 10
1.6116772 -1.9302809 -0.39828217 6 3
3.8724523 -4.6412692 0.74218434 63 11
2.0915771 -2.5077171 -0.40095019 8 4
3.8632717 -4.633553 0.95550185 57 12
2.3279972 -2.7931578 -0.31811845 42 5
3.8761017 -4.653893 1.1772915 63 13
2.3475561 -2.8196249 -0.19228233 45 6
3.8720124 -4.6522846 1.397396 56 14
2.3417606 -2.8146615 -0.063910715 38 7
3.8763759 -4.6608353 1.6243484 71 15
0.94262367 -1.1382223 -0.39599317 7 0
3.3652308 -4.0649753 0.0921138 27 8
1.1082528 -1.3391715 -0.40131268 7 1
3.1891181 -3.8549809 0.26220316 48 9
1.2949522 -1.5658845 -0.39497465 6 2
3.8684998 -4.6812015 0.53130138 59 10
1.5914836 -1.9265097 -0.39577925 6 3
3.8767195 -4.6944842 0.74754661 67 11
2.0864398 -2.5274568 -0.40241259 8 4
3.8678696 -4.6887655 0.9626978 61 12
2.2537642 -2.7330623 -0.30992582 28 5
3.8712285 -4.6961756 1.1830158 65 13
2.3472261 -2.8484254 -0.1934337 44 6
3.8831081 -4.7139387 1.4099932 56 14
2.3396997 -2.8423231 -0.06425976 38 7
3.8764691 -4.7109027 1.6347013 64 15
0.93929988 -1.145967 -0.39702842 7 0
3.3648915 -4.1067047 0.092672281 25 8
1.0913494 -1.3328935 -0.39771348 7 1
3.1891298 -3.8963556 0.26387793 45 9
1.2917084 -1.5787213 -0.39650109 6 2
3.8674624 -4.7284818 0.53443903 53 10
1.5813746 -1.9348164 -0.39577925 6 3
3.8633902 -4.7285533 0.7497403 67 11
2.0756891 -2.5414217 -0.4029001 8 4
3.8753207 -4.7465367 0.97051954 63 12
2.2356446 -2.7401943 -0.30940288 33 5
3.8751256 -4.7513733 1.1917931 60 13
2.3423762 -2.8730605 -0.19427109 44 6
3.8866889 -4.768949 1.4203409 54 14
2.34499 -2.8793437 -0.064818241 37 7
3.8822417 -4.7685885 1.6476421 70 15
0.94058758 -1.1598724 -0.40013427 7 0
3.3685279 -4.1553345 0.093370378 25 8
1.0868087 -1.3416179 -0.39861327 7 1
3.1812541 -3.9285216 0.26492465 43 9
1.2784835 -1.5793592 -0.39497465 6 2
3.875237 -4.7889361 0.53897113 51 10
1.5737064 -1.9461418 -0.39640498 6 3
3.8635366 -4.7795925 0.75461507 67 11
2.0523727 -2.5399029 -0.40095019 8 4
3.8752403 -4.7974954 0.97677696 57 12
2.271323 -2.8138762 -0.31637534 39 5
3.8760841 -4.8036838 1.199807 56 13
2.3423479 -2.9039407 -0.19552715 42 6
3.8763444 -4.8074389 1.4257398 53 14
2.3487015 -2.9149392 -0.065341808 35 7
3.8753974 -4.8114181 1.6554067 72 15
0.92724806 -1.1557403 -0.39702842 7 0
3.372998 -4.2056746 0.094103374 23 8
1.0822066 -1.3503314 -0.3995131 6 1
3.1843677 -3.9747407 0.26691341 47 9
1.2628332 -1.5768371 -0.39268494 7 2
3.8775032 -4.8433785 0.54280597 51 10
1.5610268 -1.9512702 -0.39577925 6 3
3.8756528 -4.8462658 0.76192719 66 11
2.0390456 -2.5506141 -0.40095019 8 4
3.8673325 -4.8393245 0.98115706 53 12
2.2080705 -2.765012 -0.3095772 56 5
3.8802755 -4.8607368 1.2089659 61 13
2.3445518 -2.9380212 -0.19699256 41 6
3.871779 -4.8535671 1.4333881 55 14
2.3383925 -2.9334514 -0.065481432 37 7
3.8826578 -4.872436 1.6693829 70 15
0.9139778 -1.1515007 -0.3939226 7 0
3.3832467 -4.2640066 0.095010899 31 8
1.0775428 -1.3590332 -0.40041289 7 1
3.185843 -4.0195332 0.26879749 19 9
1.2667514 -1.5988158 -0.39650109 6 2
3.8755941 -4.89329 0.54611784 63 10
1.560596 -1.9718084 -0.39828217 6 3
3.8834796 -4.908525 0.76850814 78 11
2.033051 -2.5705974 -0.40241259 8 4
3.8848197 -4.913743 0.99210751 92 12
2.1540391 -2.7265079 -0.30399922 21 5
3.8912752 -4.9272084 1.2204144 100 13
2.3464627 -2.9722035 -0.19845797 35 6
3.8885665 -4.9273143 1.4491347 80 14
2.336622 -2.9629269 -0.065865383 33 7
3.8774245 -4.9184895 1.6781827 98 15
0.91509455 -1.1653869 -0.39702842 7 0
3.3793952 -4.3052578 0.095534474 100 8
1.0656013 -1.3585234 -0.39861327 6 1
3.1943307 -4.0738807 0.27130961 45 9
1.2559404 -1.6023363 -0.39573789 6 2
3.8634369 -4.9307666 0.54803526 91 10
1.5356368 -1.9612885 -0.39452776 6 3
3.8724082 -4.9475498 0.771433 93 11
2.0171173 -2.5780804 -0.40192512 8 4
3.8626895 -4.9386845 0.99304616 96 12
2.149549 -2.7503073 -0.30539373 50 5
3.8557534 -4.9351392 1.2173615 91 13
2.3493085 -3.0080597 -0.20002805 39 6
3.8543196 -4.9368553 1.4459854 71 14
2.3407569 -3.0003471 -0.066423863 35 7
3.8504305 -4.9372005 1.6776651 79 15
0.90898001 -1.1701622 -0.39702842 9 0
3.349448 -4.3134165 0.095325045 99 8
1.0608629 -1.3671634 -0.3995131 7 1
3.1937666 -4.1173787 0.27308905 45 9
1.2487366 -1.6104419 -0.39611951 6 2
3.8302433 -4.9414797 0.54698944 74 10
1.5253465 -1.9693021 -0.39452776 6 3
3.8112054 -4.9222403 0.7643646 70 11
2.0011609 -2.5854671 -0.40143764 8 4
3.8138099 -4.9291573 0.98710161 80 12
2.1144016 -2.7347293 -0.30243042 42 5
3.803448 -4.9210863 1.2089659 75 13
