# .PCD v0.7 - Point Cloud Data file format
VERSION 0.7
FIELDS x y z intensity ring
SIZE 4 4 4 4 2
TYPE F F F F U
COUNT 1 1 1 1 1
WIDTH 1283
HEIGHT 1
VIEWPOINT 0 0 0 1 0 0 0
POINTS 1283
DATA ascii
-1.6535335 0.79259551 -0.35643122 6 2
-3.3235273 1.5937935 0.32247624 42 10
-1.9856619 0.95307493 -0.34884888 5 3
-4.4629431 2.1430736 0.60788435 72 11
-2.4603176 1.1819556 -0.33514073 8 4
-4.3780403 2.1041861 0.76934481 18 12
-2.6105802 1.2558264 -0.2534489 76 5
-4.293468 2.0663066 0.92618686 4 13
-2.6417146 1.2719392 -0.15365838 71 6
-4.4488683 2.1430082 1.140052 63 14
-2.6208534 1.2635856 -0.050786503 81 7
-4.3274183 2.0872986 1.287366 6 15
-1.2255727 0.59404922 -0.36493486 7 0
-2.6197793 1.2704011 0.050821409 81 8
-1.4112883 0.68498039 -0.3621712 6 1
-3.3166156 1.6104621 0.19322437 71 9
-1.6511271 0.80209988 -0.35681283 6 2
-3.3348479 1.6207539 0.32439366 23 10
-1.9682101 0.95741004 -0.34665883 6 3
-4.457015 2.1690187 0.60861558 70 11
-2.4612343 1.1982977 -0.33611569 8 4
-4.3722906 2.1296751 0.7702834 16 12
-2.6254599 1.2799549 -0.25554064 71 5
-2.6386085 1.2875051 -0.15386772 69 6
-4.446342 2.170547 1.1423014 61 14
-2.6213884 1.2808024 -0.050926123 77 7
-4.3199015 2.1116245 1.2884012 6 15
-1.2345833 0.60641968 -0.36855832 7 0
-2.6130915 1.2841012 0.050821409 71 8
-1.4041849 0.69064015 -0.36127138 6 1
-3.3063459 1.6269237 0.19311969 63 9
-1.639859 0.807266 -0.35528636 5 2
-3.3710008 1.6601995 0.32875144 9 10
-1.9578545 0.96508199 -0.3457202 6 3
-4.4455967 2.1923263 0.60861558 70 11
-2.4513659 1.2094115 -0.33562821 7 4
-4.3841081 2.1639047 0.7743507 18 12
-2.6258674 1.2972138 -0.25623786 66 5
-2.6264598 1.298648 -0.15355371 66 6
-4.4523835 2.2024381 1.1468004 60 14
-2.6271906 1.3007215 -0.051170457 75 7
-4.3035927 2.1316416 1.2868483 5 15
-1.2434975 0.61890125 -0.3721818 7 0
-2.6242325 1.3066792 0.051170457 79 8
-1.4005495 0.69798285 -0.36127138 8 1
-3.2959945 1.6433226 0.19301502 55 9
-1.6443939 0.82022262 -0.35719445 6 2
-4.187674 2.0897219 0.40945768 17 10
-1.9598436 0.97885048 -0.34697169 6 3
-4.4500389 2.2235575 0.61080921 75 11
-2.4485509 1.2240057 -0.33611569 8 4
-4.3780179 2.1894805 0.7752893 18 12
-2.6297293 1.3162962 -0.25728375 68 5
-2.6303387 1.3177495 -0.15418173 68 6
-4.4373064 2.2239749 1.1459007 61 14
-2.6346436 1.3216323 -0.051449694 73 7
-4.288919 2.1524138 1.2858131 4 15
-1.2247154 0.61757517 -0.36752307 7 0
-2.6298525 1.3267057 0.051414788 69 8
-1.4038342 0.70881975 -0.36307099 6 1
-3.3105211 1.6722636 0.19437577 57 9
-1.6330677 0.82527965 -0.35566798 6 2
-4.061101 2.0531881 0.39812744 38 10
-1.9617417 0.99266654 -0.34822315 5 3
-4.46136 2.2584825 0.61397779 76 11
-2.431483 1.2314279 -0.33465323 8 4
-4.3753042 2.2168384 0.77685362 18 12
-2.6316857 1.3345526 -0.25815532 75 5
-2.637651 1.3387352 -0.15501912 66 6
-4.4429765 2.2560005 1.1503997 60 14
-2.6259043 1.3345035 -0.051414788 77 7
-4.2534814 2.1625829 1.2785661 3 15
-1.2214649 0.62397951 -0.36752307 7 0
-2.6282117 1.3431877 0.051519506 71 8
-1.4105132 0.72148526 -0.3657704 7 1
-3.3194993 1.6986734 0.19542249 66 9
-1.6287242 0.83381891 -0.35566798 6 2
-4.3854547 2.2460821 0.43107229 39 10
-1.9565172 1.0029243 -0.34822315 5 3
-4.4547725 2.2845292 0.61470902 72 11
-2.4320669 1.2477666 -0.33562821 7 4
-4.3794537 2.2478347 0.77966946 16 12
-2.6246619 1.3483142 -0.25815532 75 5
-4.0004315 2.0559416 0.87428689 1 13
-2.6519198 1.3634863 -0.15627518 65 6
-4.4432335 2.2854731 1.153549 58 14
-2.6242151 1.3509794 -0.051519506 72 7
-4.1665316 2.145905 1.2557901 2 15
-1.2096025 0.62592721 -0.36493486 7 0
-2.6211429 1.3569304 0.051519506 71 8
-1.3928738 0.72168899 -0.3621712 8 1
-3.3158796 1.718788 0.1957365 66 9
-1.6191075 0.83962381 -0.35452312 5 2
-4.4426069 2.3047969 0.43787044 15 10
-1.9389671 1.0067832 -0.3460331 6 3
-4.4568424 2.3151445 0.61665893 72 11
-2.4325461 1.264145 -0.33660313 7 4
-4.3728814 2.2734687 0.78060806 15 12
-2.6175666 1.3620375 -0.25815532 75 5
-3.9182124 2.0396924 0.85864049 9 13
-2.6482873 1.3791986 -0.15648453 65 6
-4.4450326 2.3159084 1.1571481 54 14
-2.6312902 1.3720984 -0.051798742 71 7
-4.1381116 2.1587548 1.2506137 2 15
-1.2148638 0.63673598 -0.36752307 7 0
-2.6210859 1.3743509 0.051659122 73 8
-1.3977039 0.73349983 -0.36442071 8 1
-3.3262858 1.7463392 0.19688788 61 9
-1.6251179 0.8535673 -0.35681283 5 2
-4.3140731 2.2668602 0.42636588 1 10
-1.9301728 1.0150824 -0.34540737 6 3
-4.4499297 2.3412211 0.61739016 73 11
-2.4223802 1.2750157 -0.33611569 8 4
-4.3941278 2.3138199 0.78655261 11 12
-2.6297874 1.3859429 -0.26007274 82 5
-4.0394664 2.1297674 0.88764352 4 13
-2.6321967 1.3883867 -0.15596117 59 6
-4.4431863 2.3446083 1.1598476 54 14
-2.638216 1.3933277 -0.052077983 72 7
-4.1045461 2.1686606 1.2438843 5 15
-1.2166325 0.64580542 -0.36907598 7 0
-2.6226847 1.3927451 0.051833645 69 8
-1.3836476 0.73507899 -0.36172128 8 1
-3.3223872 1.7665445 0.19720189 71 9
-1.6154263 0.85929888 -0.35566798 5 2
-4.4358172 2.3605518 0.43961355 16 10
-1.9389594 1.0322653 -0.34791031 6 3
-4.4463696 2.3691556 0.61860883 75 11
-2.4016571 1.2802112 -0.33416575 7 4
-4.3836956 2.3377259 0.78686547 9 12
-2.62977 1.4029872 -0.26076996 76 5
-4.0092087 2.140717 0.88344568 3 13
-2.6213672 1.4002681 -0.15575182 56 6
-4.4377241 2.3715141 1.1616472 54 14
-2.63113 1.4066628 -0.052077983 72 7
-4.0986271 2.1921418 1.2454373 10 15
-1.2149359 0.65308172 -0.36959362 7 0
-2.6347296 1.4168763 0.052217599 73 8
-1.3814961 0.74323684 -0.3621712 8 1
-3.30461 1.7786046 0.19667853 70 9
-1.6058705 0.86467189 -0.35452312 6 2
-4.4619832 2.4045389 0.44344842 80 10
-1.9335277 1.0424039 -0.34791031 6 3
-4.4448047 2.3972838 0.62007129 72 11
-2.4021351 1.2961211 -0.33514073 7 4
-4.3209887 2.333427 0.77779222 1 12
-2.6329062 1.4224188 -0.26181585 78 5
-2.6405997 1.4277669 -0.1573219 76 6
-4.4410906 2.4022889 1.1656964 55 14
-2.6272454 1.4223245 -0.052147791 68 7
-4.0836954 2.2117317 1.2444019 21 15
-1.1963423 0.65091306 -0.36493486 7 0
-2.6292808 1.4311502 0.052252505 67 8
-1.3792968 0.7513926 -0.3626211 8 1
-3.3022666 1.7997067 0.19709724 70 9
-1.6030449 0.874008 -0.35490477 6 2
-4.4532533 2.4290009 0.44379702 84 10
-1.9349788 1.0562989 -0.34916177 6 3
-4.4478717 2.4290879 0.62226492 27 11
-2.3883469 1.3048741 -0.33416575 7 4
-4.2189889 2.3060007 0.76152301 1 12
-2.6271701 1.4371417 -0.26199016 73 5
-4.3055639 2.3562505 0.954045 9 13
-2.6453512 1.4482872 -0.15805461 77 6
-4.441699 2.4337757 1.1692957 54 14
-2.6337905 1.4437507 -0.052427031 68 7
-4.0788355 2.236799 1.2464726 28 15
-1.192803 0.65737653 -0.36493486 8 0
-2.6250012 1.4472857 0.052322313 69 8
-1.3787565 0.76048619 -0.36352089 8 1
-3.2945471 1.8179373 0.19720189 68 9
-1.5982927 0.88266838 -0.35490477 5 2
-4.4557419 2.461731 0.44536582 88 10
-1.9225061 1.0625938 -0.34791031 6 3
-4.1953564 2.3197849 0.58862901 12 11
-2.3916736 1.323544 -0.33562821 8 4
-4.1131272 2.2771297 0.74462813 5 12
-2.6300666 1.4566694 -0.26303601 75 5
-4.2880163 2.3759072 0.95290023 14 13
-2.6392233 1.463547 -0.15815927 76 6
-4.4442325 2.4655056 1.1733446 54 14
-2.6296918 1.4594626 -0.052496839 62 7
-4.0835614 2.2682147 1.251649 29 15
-1.2062148 0.67302585 -0.37011126 7 0
-2.6278641 1.466858 0.052531745 75 8
-1.371219 0.76603454 -0.3626211 8 1
-3.2794325 1.8328123 0.19688788 67 9
-1.5970763 0.8929413 -0.35566798 6 2
-4.2010889 2.3498347 0.42113656 43 10
-1.9132814 1.07105 -0.34728456 6 3
-4.1567645 2.3279002 0.58497292 11 11
-2.3881745 1.337989 -0.33611569 7 4
-4.0908093 2.2928386 0.74275094 8 12
-2.6325734 1.4767263 -0.2640819 73 5
-4.3161893 2.4221311 0.96205902 15 13
-2.6280408 1.4753909 -0.15794992 76 6
-4.4533505 2.5011468 1.1791934 55 14
-2.6287296 1.4775883 -0.052636456 64 7
-4.0901513 2.2999814 1.2573429 30 15
-1.2009923 0.67838216 -0.36959362 7 0
-2.6271112 1.4845328 0.052671362 77 8
-1.3570118 0.76744735 -0.35992166 8 1
-3.2628374 1.8460249 0.1964692 67 9
-1.5923787 0.90129149 -0.35566798 6 2
-4.4435892 2.5161083 0.44676036 78 10
-1.9093657 1.0820276 -0.34759742 6 3
-4.4035516 2.4964836 0.62153369 43 11
-2.367322 1.3426409 -0.33416575 8 4
-4.0924926 2.3220255 0.74525392 12 12
-2.6317348 1.4944258 -0.26477915 69 5
-4.4536672 2.5300345 0.99564141 57 13
-2.6324346 1.4960384 -0.15868263 77 6
-4.4401932 2.5244308 1.1791934 54 14
-2.6313853 1.4972655 -0.052845888 64 7
-4.0931635 2.3299668 1.2620018 28 15
-1.1890384 0.67986679 -0.36700544 7 0
-2.6262457 1.5022388 0.052810986 77 8
-1.3598754 0.77817774 -0.36172128 8 1
-3.2583272 1.8660605 0.19678321 57 9
-1.577417 0.90376079 -0.3533783 6 2
-4.4683824 2.5611379 0.45059517 15 10
-1.9141467 1.0975733 -0.34947464 6 3
-4.4575672 2.5580406 0.63103956 63 11
-2.3533735 1.3510641 -0.33319083 7 4
-4.0802784 2.3434215 0.74525392 15 12
-2.6345026 1.5136822 -0.265825 64 5
-2.6332216 1.5147808 -0.15920599 76 6
-4.4454937 2.5583382 1.1841424 56 14
-2.6255066 1.5115625 -0.052880794 66 7
-4.0880132 2.3545115 1.2640723 28 15
-1.1854624 0.68608314 -0.36700544 8 0
-2.6321883 1.5239853 0.053090218 75 8
-1.3490369 0.78138065 -0.35992166 8 1
-3.2661211 1.8925424 0.19782993 42 9
-1.5830137 0.91764063 -0.35566798 6 2
-3.9017096 2.263561 0.39464122 1 10
-1.9049566 1.1055974 -0.34884888 5 3
-2.3636706 1.3729286 -0.33562821 7 4
-4.0764904 2.3697181 0.74681824 21 12
-2.6282635 1.528457 -0.26599932 66 5
-2.6445088 1.5391408 -0.16035739 79 6
-4.4409089 2.5857067 1.1863918 55 14
-2.6279221 1.5313298 -0.053090218 66 7
-4.0856442 2.3817201 1.2671782 27 15
-1.1819748 0.69207436 -0.36700544 7 0
-2.6296172 1.5403208 0.053194933 74 8
-1.3516521 0.79237515 -0.36172128 8 1
-1.576494 0.92492312 -0.35528636 6 2
-1.8855156 1.1075523 -0.34634593 5 3
-4.1999421 2.4680343 0.59813482 9 11
-2.3632944 1.3893101 -0.33660313 7 4
-4.0031462 2.3542693 0.73555493 14 12
-2.6305263 1.5482619 -0.2670452 68 5
-4.0111895 2.3618281 0.90481627 1 13
-2.6432972 1.5570209 -0.16077606 78 6
-2.6370928 1.5552264 -0.053439267 66 7
-4.0830998 2.4089704 1.2702839 28 15
-1.1816589 0.70022327 -0.36804068 7 0
-2.626677 1.5571266 0.053299651 75 8
-1.3441327 0.79745305 -0.36082149 8 1
-3.993247 2.3700738 0.24336222 16 9
-1.5851343 0.94118375 -0.35833931 6 2
-4.3201437 2.5661333 0.43961355 13 10
-1.8728985 1.1133723 -0.34509447 5 3
-4.4138837 2.6249413 0.63055205 10 11
-2.3559878 1.4016651 -0.33660313 7 4
-4.0875206 2.4327846 0.75338852 22 12
-2.6343663 1.5691508 -0.26826537 64 5
-4.0021415 2.3848081 0.90557957 14 13
-2.6333933 1.5698171 -0.1606714 76 6
-4.4253039 2.6390569 1.1895411 7 14
-2.6409333 1.5761873 -0.053683605 68 7
-4.0870175 2.4402204 1.2754604 27 15
-1.1846033 0.71037513 -0.37011126 7 0
-2.6304913 1.5780599 0.053543981 74 8
-1.3399389 0.8044799 -0.36082149 8 1
-3.955101 2.3755243 0.24179214 18 9
-1.563356 0.93935883 -0.35452312 6 2
-3.9036469 2.3464744 0.39847603 15 10
-1.8839699 1.1333466 -0.34822315 5 3
-3.8626127 2.3245628 0.55353063 13 11
-2.3282084 1.401695 -0.33367831 7 4
-4.0933399 2.4653649 0.75683004 22 12
-2.6380584 1.5901231 -0.26948556 66 5
-4.026587 2.4280341 0.91397518 1 13
-2.637109 1.5908051 -0.1614041 78 6
-4.433115 2.6752813 1.1953899 33 14
-2.6394918 1.5941278 -0.053823221 68 7
-4.0857592 2.4685795 1.2790838 22 15
-1.1775643 0.71456373 -0.36907598 8 0
-2.6358678 1.6001128 0.053823221 72 8
-1.3357081 0.81148499 -0.36082149 8 1
-3.848737 2.339148 0.23603518 16 9
-1.5533838 0.94447178 -0.3533783 6 2
-3.8896048 2.3658469 0.39830172 8 10
-1.8881341 1.149358 -0.35010037 5 3
-3.8944702 2.3716004 0.5598678 16 11
-2.3208375 1.413866 -0.33367831 7 4
-4.0871224 2.4908752 0.7580815 22 12
-2.6313977 1.6049505 -0.26965985 69 5
-2.6389718 1.610835 -0.16203214 78 6
-4.4273639 2.7035332 1.1976395 13 14
-2.6294022 1.606884 -0.053788319 66 7
-4.0843148 2.4969926 1.2827072 15 15
-1.1672219 0.71667594 -0.36700544 8 0
-2.634269 1.6180792 0.053962842 74 8
-1.331441 0.81846744 -0.36082149 8 1
-3.863657 2.376008 0.23770994 16 9
-1.5484173 0.95259213 -0.3533783 6 2
-4.3811107 2.6963313 0.45007223 16 10
-1.8719985 1.1530128 -0.34822315 5 3
-3.9783309 2.4513154 0.57376093 9 11
-2.3235416 1.4322487 -0.33514073 7 4
-4.0908389 2.5226095 0.7612102 22 12
-2.6314356 1.6239388 -0.27053142 68 5
-4.2448382 2.6206431 0.9696914 1 13
-2.6474943 1.6351253 -0.16307886 77 6
-4.2738891 2.6406372 1.1598476 2 14
-2.626055 1.6237843 -0.05389303 64 7
-4.0777574 2.5224075 1.2847778 10 15
-1.1601712 0.72073895 -0.36597013 8 0
-2.6291575 1.6339607 0.05403265 74 8
-1.330447 0.82748586 -0.36172128 8 1
-3.2355878 2.0131924 0.19971403 2 9
-1.5484084 0.96379918 -0.35452312 5 2
-4.3077378 2.6823733 0.44397137 9 10
-1.855877 1.15653 -0.34634593 5 3
-3.9418576 2.4574103 0.57034856 11 11
-2.3193796 1.4464958 -0.33562821 7 4
-4.0859547 2.549222 0.76277459 20 12
-2.6364164 1.6461366 -0.2719259 71 5
-4.0279155 2.5159426 0.92313397 9 13
-2.6456714 1.653199 -0.16349754 78 6
-4.3624554 2.7270234 1.1877415 5 14
-2.6344695 1.6481179 -0.054242078 64 7
-4.0694065 2.5467992 1.2863307 9 15
-1.1596529 0.72885966 -0.36700544 8 0
-2.6256452 1.6508976 0.054137368 75 8
-1.3161999 0.82821351 -0.35902187 8 1
-3.2283826 2.0322344 0.19992337 57 9
-1.5416794 0.97084743 -0.3541415 5 2
-4.3964653 2.7696724 0.45460433 50 10
-1.8564799 1.1704458 -0.34759742 5 3
-4.1824713 2.6379209 0.60715312 9 11
-2.3117735 1.4586205 -0.33562821 7 4
-4.0892549 2.5811253 0.76590323 20 12
-2.6395526 1.6673665 -0.27314609 69 5
-4.4611316 2.8191204 1.0257893 73 13
-2.6352916 1.6659611 -0.16339287 76 6
-4.466702 2.8248229 1.2201345 56 14
-2.6325631 1.666167 -0.054381698 64 7
-4.0658088 2.5742719 1.2894366 7 15
-1.159081 0.73699492 -0.36804068 8 0
-2.6321504 1.6742818 0.054451507 74 8
-1.3184208 0.83927989 -0.36082149 8 1
-3.2109599 2.0448179 0.19950469 56 9
-1.5398866 0.98101586 -0.35490477 6 2
-4.4558306 2.8397708 0.46227407 56 10
-1.8469951 1.1780255 -0.34697169 6 3
-4.0899482 2.6095998 0.5956974 11 11
-2.2940652 1.4642959 -0.33416575 7 4
-4.0840087 2.6078165 0.76746756 18 12
-2.6425378 1.6886746 -0.27436629 68 5
-4.4595428 2.8508992 1.0288421 73 13
-2.6332624 1.6840411 -0.16381156 74 6
-4.4420004 2.841871 1.2174351 56 14
-2.6339078 1.6863974 -0.05459113 62 7
-4.0620346 2.6017776 1.2925425 7 15
-1.1584558 0.74514377 -0.36907598 8 0
-2.6300743 1.6923695 0.05459113 74 8
-1.3107315 0.84406126 -0.35992166 8 1
-3.8348777 2.4704623 0.23907068 19 9
-1.5248275 0.98268402 -0.35261503 6 2
-4.4609952 2.8760164 0.46436578 86 10
-1.8574003 1.19839 -0.35010037 5 3
-4.0495434 2.613755 0.59179759 11 11
-2.2830312 1.4741342 -0.33367831 7 4
-4.0769353 2.6334524 0.76871902 20 12
-2.6487195 1.7122215 -0.27593508 73 5
-4.4643369 2.8870041 1.0334216 100 13
-2.6529169 1.7162482 -0.16559097 68 6
-4.4565091 2.8841469 1.2255334 79 14
-2.6283987 1.7023392 -0.054660939 64 7
-4.0532198 2.6261613 1.2940953 6 15
-1.1448227 0.74487758 -0.36597013 8 0
-2.6362605 1.7159346 0.054905269 57 8
-1.3128253 0.85516739 -0.36172128 8 1
-3.85201 2.5101349 0.24095476 27 9
-1.5278846 0.99601501 -0.35452312 6 2
-4.4592261 2.9080424 0.46576029 40 10
-1.8378667 1.1994613 -0.34759742 5 3
-4.0374637 2.6360078 0.59204131 13 11
-2.2852535 1.4925814 -0.33514073 7 4
-4.0763206 2.6634054 0.771222 22 12
-2.6563933 1.7369708 -0.27767819 51 5
-4.4442306 2.9071152 1.0322767 70 13
-2.677319 1.7519883 -0.16768442 49 6
-4.4234109 2.8957014 1.2205844 51 14
-2.6713026 1.7500495 -0.055742987 48 7
-4.0167937 2.6325226 1.2868483 5 15
-1.1376797 0.74873751 -0.36493486 8 0
-2.6406014 1.738512 0.05518451 51 8
-1.3052255 0.85965735 -0.36082149 8 1
-3.8554897 2.5412614 0.24200147 28 9
-1.5341216 1.0115668 -0.35719445 5 2
-4.4206553 2.9159906 0.46331993 34 10
-1.8218791 1.2022204 -0.3457202 5 3
-4.3134918 2.848546 0.63469559 9 11
-2.2740943 1.5023378 -0.33465323 7 4
-3.8332472 2.5333238 0.72773325 15 12
-2.6592016 1.758085 -0.27889836 64 5
-4.3896532 2.9043458 1.0231179 49 13
-2.6547849 1.7571641 -0.16684705 58 6
-4.3821912 2.9016082 1.2133859 41 14
-2.640738 1.7491916 -0.055289224 56 7
-3.9583268 2.6229415 1.2723545 4 15
-1.1401762 0.75896615 -0.36700544 8 0
-2.6531007 1.7667222 0.055638272 63 8
-1.2909756 0.85999721 -0.35812208 8 1
-3.8608603 2.5729268 0.24315289 31 9
-1.5208142 1.0138739 -0.35528636 5 2
-4.375493 2.919194 0.46018231 56 10
-1.8188454 1.2139368 -0.34634593 6 3
-4.0134087 2.6796472 0.59252882 4 11
-2.2664614 1.5138285 -0.33465323 7 4
-3.8774099 2.5917804 0.73868364 15 12
-2.6516161 1.7730918 -0.27907267 69 5
-4.3243098 2.892688 1.0112877 26 13
-2.6458573 1.7705779 -0.16684705 65 6
-4.33992 2.9053218 1.2057376 37 14
-2.6464951 1.7730114 -0.055603366 66 7
-3.865905 2.5909302 1.2469902 7 15
-1.1363199 0.76472753 -0.36700544 8 0
-2.6524179 1.7857124 0.055812798 77 8
-1.2930715 0.8708747 -0.35992166 8 1
-3.8357427 2.5852926 0.24242018 28 9
-1.5089738 1.0174322 -0.35375988 6 2
-3.8816495 2.618206 0.409632 49 10
-1.825778 1.231966 -0.34884888 5 3
-3.852905 2.6017537 0.57083601 23 11
-2.2585039 1.5256747 -0.33465323 7 4
-3.901886 2.6368113 0.74587959 12 12
-2.6591134 1.797649 -0.28081581 69 5
-4.1172276 2.7854769 0.9662568 5 13
-2.6530907 1.7956021 -0.16789377 68 6
-4.2891469 2.9039707 1.1958399 38 14
-2.6490767 1.7942338 -0.055847701 62 7
-3.8527422 2.6104639 1.2469902 16 15
-1.1386887 0.7750144 -0.36907598 10 0
-2.6463373 1.8018271 0.055882607 84 8
-1.2917153 0.8798272 -0.36082149 8 1
-3.8374627 2.6147952 0.24336222 33 9
-1.5086714 1.0283743 -0.35490477 6 2
-4.2694902 2.9124472 0.45216399 45 10
-1.8241971 1.2448494 -0.3497875 6 3
-4.2692342 2.914458 0.63469559 46 11
-2.2474742 1.5348477 -0.33416575 7 4
-3.832576 2.6193097 0.73524207 19 12
-2.6628227 1.8205433 -0.28221029 69 5
-4.0447388 2.7663803 0.95251852 13 13
-2.6555068 1.8169018 -0.16862647 64 6
-4.2422314 2.9036283 1.1868417 38 14
-2.6379962 1.8069496 -0.055812798 59 7
-3.8438017 2.6338766 1.2485431 28 15
-1.125067 0.77439409 -0.36597013 10 0
-2.6516905 1.8258644 0.056196753 79 8
-1.2837266 0.88459182 -0.35992166 8 1
-3.8429918 2.6491227 0.24461828 14 9
-1.501469 1.0354072 -0.35452312 5 2
-4.2049813 2.9008219 0.44693464 16 10
-1.8093071 1.2490895 -0.34822315 5 3
-4.1864338 2.8912628 0.62470233 61 11
-2.242403 1.5492423 -0.33465323 7 4
-3.8106837 2.6337249 0.73367769 21 12
-2.6447403 1.8292574 -0.28133872 71 5
-4.2234488 2.9222729 0.99831271 59 13
-2.6554909 1.8380637 -0.1692545 61 6
-4.2200503 2.9221015 1.1850421 50 14
-2.64133 1.8303081 -0.056092035 57 7
-3.8342576 2.6579373 1.2500961 32 15
-1.1146547 0.77585959 -0.36389959 10 0
-2.6404529 1.8385813 0.056161843 77 8
-1.2918681 0.9002142 -0.36352089 8 1
-3.8536453 2.6863401 0.24618836 37 9
-1.4976374 1.0443779 -0.35490477 5 2
-4.2093444 2.9364784 0.44902641 46 10
-1.7962632 1.2540231 -0.34697169 5 3
-4.154963 2.9017766 0.62226492 24 11
-2.2440245 1.5677835 -0.33611569 7 4
-3.7855074 2.6457207 0.73148763 22 12
-2.6432898 1.8487896 -0.28221029 69 5
-3.8590238 2.7001107 0.91550165 13 13
-2.6589212 1.861104 -0.17009188 61 6
-3.8391366 2.6881921 1.0820146 12 14
-2.649725 1.8567349 -0.056475986 62 7
-3.8313618 2.6857388 1.2537196 25 15
-1.1168959 0.78613311 -0.36597013 10 0
-2.6406002 1.8592888 0.056371275 77 8
-1.2903228 0.90921122 -0.36442071 8 1
-3.8427925 2.7087822 0.2463977 22 9
-1.4969618 1.0555992 -0.3560496 5 2
-3.8503876 2.7161493 0.41224664 19 10
-1.786445 1.2611324 -0.34634593 5 3
-3.8105454 2.6910331 0.57278597 26 11
-2.239028 1.5818017 -0.33660313 7 4
-3.8070929 2.690587 0.73837078 21 12
-2.6498401 1.8741088 -0.2839534 64 5
-3.8191907 2.7021363 0.90939575 34 13
-2.645879 1.8726932 -0.16988252 60 6
-3.8186469 2.7037523 1.080215 30 14
-2.6497562 1.8775204 -0.056685418 64 7
-3.8077898 2.6990604 1.2506137 29 15
-1.1159124 0.79421073 -0.36700544 8 0
-2.6422315 1.8812084 0.056615606 74 8
-1.2744349 0.90803903 -0.36127138 8 1
-3.8187973 2.7219107 0.24576966 30 9
-1.4850203 1.0588635 -0.35452312 4 2
-3.8361132 2.7362726 0.41224664 33 10
-1.7846408 1.2739118 -0.34728456 6 3
-3.8157895 2.7247913 0.57571083 30 11
-2.2177925 1.5842727 -0.33465323 7 4
-3.8202751 2.7300081 0.74368954 31 12
-2.6513352 1.8960701 -0.28517357 68 5
-3.81936 2.7323775 0.91283029 35 13
-2.6522794 1.8981447 -0.17092925 61 6
-3.8060231 2.7248437 1.0806649 28 14
-2.6496425 1.898357 -0.056894846 68 7
-3.8202999 2.7380915 1.2594135 27 15
-1.1054666 0.79552901 -0.36493486 8 0
-2.6469514 1.9055318 0.056929749 70 8
-1.2680819 0.91356027 -0.36082149 8 1
-3.8433814 2.7698944 0.24828181 37 9
-1.4746784 1.06318 -0.3533783 6 2
-4.1578531 2.9987371 0.44850346 56 10
-1.7795482 1.2843946 -0.34759742 6 3
-4.2183118 3.0457013 0.63883913 63 11
-2.2126853 1.5981884 -0.33514073 7 4
-4.2062159 3.0392003 0.82190675 56 12
-2.6559019 1.9204339 -0.28674239 69 5
-4.2313147 3.0607092 1.0151039 68 13
-2.6552486 1.9213731 -0.17176662 60 6
-4.2131786 3.0498323 1.2007887 54 14
-2.638047 1.9110311 -0.05685994 74 7
-4.2267036 3.0629969 1.3986582 53 15
-1.0950377 0.79675972 -0.36286432 8 0
-2.6482553 1.9276026 0.057174087 67 8
-1.2695819 0.92477685 -0.3626211 8 1
-3.8740218 2.8229146 0.25121263 76 9
-1.4722642 1.0732 -0.3541415 6 2
-4.227416 3.0826831 0.45774195 86 10
-1.7696071 1.2913661 -0.34697169 5 3
-4.2199445 3.0806203 0.64152032 67 11
-2.2042871 1.6097519 -0.33514073 7 4
-4.212575 3.077497 0.82628691 52 12
-2.6458104 1.9343135 -0.28674239 75 5
-4.2247386 3.0897765 1.0173936 70 13
-2.658047 1.9446846 -0.17260399 61 6
-4.2128782 3.0833597 1.2052878 50 14
-2.6489768 1.9401789 -0.057313703 69 7
-4.2168412 3.0896523 1.4007287 57 15
-1.0970753 0.80706173 -0.36493486 7 0
-2.6397369 1.9426273 0.057208989 63 8
-1.2615839 0.92910057 -0.36172128 8 1
-3.8366771 2.8265741 0.24974722 43 9
-1.4792682 1.090212 -0.35719445 6 2
-4.2256498 3.1154172 0.45931077 86 10
-1.7628213 1.3006139 -0.34697169 6 3
-4.2213244 3.1156414 0.6442014 69 11
-2.2054095 1.6283463 -0.33660313 7 4
-4.2154713 3.1135948 0.83004135 62 12
-2.6500657 1.9587994 -0.28831118 82 5
-4.2179742 3.1188579 1.0196834 73 13
-2.6654918 1.9716396 -0.17375539 63 6
-4.2092071 3.1146498 1.208887 50 14
-2.6452105 1.9587814 -0.057453319 69 7
-4.211472 3.1197395 1.4043522 60 15
-1.0928346 0.8127948 -0.36493486 8 0
-2.6439683 1.9671658 0.057523135 63 8
-1.2457606 0.9275468 -0.35857198 6 1
-4.2078509 3.13415 0.27497312 55 9
-1.4672422 1.0932506 -0.35566798 6 2
-4.234839 3.1565504 0.46209973 84 10
-1.759154 1.3121885 -0.34759742 5 3
-4.2129087 3.1436372 0.64542013 67 11
-2.1777647 1.6256213 -0.33367831 7 4
-4.2212691 3.1521711 0.83442152 62 12
-2.6381779 1.9714547 -0.2881369 71 5
-4.2110205 3.147954 1.021973 71 13
-2.6471341 1.9795887 -0.17323203 60 6
-4.2131281 3.1518207 1.2147356 52 14
-2.6557286 1.9881847 -0.057907082 66 7
-4.2136354 3.1556439 1.4105638 61 15
-1.0885638 0.81850588 -0.36493486 8 0
-2.6464162 1.9905994 0.057802372 67 8
-1.2440007 0.93640095 -0.35947177 6 1
-4.2137194 3.1729598 0.27643853 65 9
-1.4662027 1.1044613 -0.35681283 7 2
-4.2357559 3.1918712 0.46401718 80 10
-1.7427963 1.3142446 -0.3457202 5 3
-4.2106528 3.1764123 0.6476137 70 11
-2.175561 1.6417851 -0.33465323 7 4
-4.2283564 3.1920824 0.83911461 60 12
-2.6564341 2.0068593 -0.29127449 73 5
-4.2164083 3.1865311 1.0273157 70 13
-2.6526649 2.0054667 -0.17427875 60 6
-4.2105551 3.1844172 1.2187848 54 14
-2.6484714 2.0044761 -0.057976898 66 7
-4.2139969 3.19049 1.4162579 64 15
-1.0842633 0.82419401 -0.36493486 8 0
-2.6550586 2.0189533 0.058221228 75 8
-1.2468349 0.94880176 -0.36172128 8 1
-4.0206485 3.0606956 0.26481998 22 9
-1.4369705 1.0942818 -0.35108855 6 2
-4.0272141 3.0679131 0.44292548 31 10
-1.761026 1.3425138 -0.3507261 5 3
-4.2192187 3.2176769 0.65151358 70 11
-2.166935 1.6531535 -0.33465323 7 4
-4.2147245 3.2165754 0.83974028 60 12
-2.6585572 2.0304151 -0.292669 75 5
-4.2215066 3.2252505 1.0326583 71 13
-2.6516488 2.0266056 -0.17490679 66 6
-4.2093053 3.2182558 1.2232838 48 14
-2.6442916 2.0231769 -0.058116514 61 7
-4.2202454 3.2301228 1.4240224 60 15
-1.0768692 0.82750577 -0.36389959 8 0
-2.6507926 2.0377021 0.058360845 75 8
-1.2435613 0.95628858 -0.3621712 6 1
-3.931757 3.0256753 0.26000506 56 9
-1.437444 1.106581 -0.35261503 6 2
-3.9242747 3.0220973 0.43333834 52 10
-1.744819 1.344177 -0.34884888 5 3
-4.2248921 3.2559536 0.65492588 70 11
-2.1613929 1.6669019 -0.33514073 7 4
-4.2150297 3.2518723 0.84318191 58 12
-2.6466691 2.0426278 -0.29249465 71 5
-4.2237763 3.2609744 1.0372378 64 13
-2.6599674 2.0551147 -0.17616285 66 6
-4.2170668 3.2593195 1.2304822 48 14
-2.6466744 2.0463192 -0.058395755 64 7
-4.2160668 3.2608981 1.4281635 60 15
-1.0757188 0.83531559 -0.36493486 8 0
-2.6420245 2.0523193 0.058395755 83 8
-1.240244 0.96376616 -0.3626211 8 1
-3.8848603 3.0210145 0.25791162 55 9
-1.4380232 1.1186641 -0.3541415 6 2
-3.8806248 3.0198965 0.43020076 52 10
-1.7255234 1.3432833 -0.34634593 5 3
-4.2271528 3.2919321 0.65785074 70 11
-2.1654544 1.687582 -0.33709061 7 4
-4.2250004 3.2938125 0.84850067 60 12
-2.6504359 2.0670252 -0.29406345 73 5
-4.2165046 3.2895563 1.0395275 64 13
-2.657403 2.074697 -0.17668621 63 6
-4.2204823 3.2962155 1.236331 48 14
-2.6488893 2.0695386 -0.058674991 63 7
-4.2162514 3.2952809 1.4338576 57 15
-1.0714771 0.8407495 -0.36493486 8 0
-2.639468 2.0718389 0.058570277 80 8
-1.2167908 0.95580161 -0.35722226 8 1
-3.845964 3.0221283 0.25634155 52 9
-1.4354296 1.128355 -0.35490477 6 2
-3.8417981 3.0210259 0.42758605 58 10
-1.7215713 1.3547428 -0.34697169 5 3
-4.2223363 3.3238437 0.65980065 70 11
-2.1428492 1.6874673 -0.33489698 6 4
-4.2268958 3.3298235 0.85225511 56 12
-2.6520941 2.0907419 -0.29545796 73 5
-4.2161798 3.3249609 1.0437253 59 13
-2.6500044 2.0905948 -0.17689554 65 6
-4.2251606 3.3344371 1.2426296 47 14
-2.6537099 2.095773 -0.05902404 61 7
-4.2156134 3.3304861 1.4395516 55 15
-1.0700873 0.84874904 -0.36597013 7 0
-2.636416 2.0918458 0.058744799 78 8
-1.2209265 0.96943021 -0.35992166 8 1
-3.7972438 3.0161376 0.25414345 55 9
-1.4356499 1.140741 -0.35643122 7 2
-3.8150098 3.0324216 0.42636588 61 10
-1.7144539 1.3637385 -0.34697169 5 3
-4.2266216 3.3632102 0.66321301 70 11
-2.1417501 1.7048454 -0.33611569 6 4
-4.2279458 3.3666763 0.85600948 54 12
-2.6613674 2.1207409 -0.29772401 71 5
-4.2232752 3.3665719 1.0498312 67 13
-2.6546373 2.1168933 -0.17794226 63 6
-4.2167845 3.3638053 1.245329 47 14
-2.652077 2.1171243 -0.059233464 63 7
-4.2147231 3.3657734 1.4452456 58 15
-1.0671358 0.85554892 -0.36648777 7 0
-2.6457067 2.1218853 0.059198562 80 8
-1.2251244 0.98291439 -0.3626211 8 1
-3.7689402 3.0259748 0.25330606 61 9
-1.4204737 1.1408657 -0.3541415 6 2
-3.7726755 3.0311415 0.42340261 71 10
-1.7167681 1.3798233 -0.34884888 5 3
-4.2275152 3.4002247 0.66613787 69 11
-2.1204212 1.7060807 -0.33416575 7 4
-4.2179546 3.3949602 0.85757387 52 12
-2.6552544 2.137933 -0.29824695 64 5
-4.2361655 3.4132738 1.0574635 76 13
-2.6497369 2.135778 -0.17836095 65 6
-4.2066989 3.3919539 1.2475786 46 14
-2.636658 2.1267548 -0.059128754 60 7
-4.2201858 3.4052601 1.4530102 60 15
-1.0581392 0.85747558 -0.36493486 7 0
-2.6516471 2.1495616 0.059582517 83 8
-1.2290426 0.99668014 -0.3653205 8 1
-3.7489231 3.0412374 0.25299203 86 9
-1.4238274 1.1554636 -0.35643122 6 2
-3.7397404 3.0370374 0.42148519 97 10
-1.7095197 1.3887935 -0.34884888 5 3
-4.2395215 3.4453652 0.67076892 76 11
-2.1240811 1.7268094 -0.33611569 7 4
-4.2307677 3.4419308 0.86383122 72 12
-2.6424787 2.1505487 -0.29807264 68 5
-4.2431951 3.4545033 1.0635694 100 13
-2.6574764 2.1642969 -0.17961702 63 6
-4.2151613 3.4341269 1.255227 48 14
-2.6440842 2.1556945 -0.059547611 67 7
-4.2112808 3.4346354 1.4561161 62 15
-1.061259 0.8689397 -0.36752307 7 0
-2.6438277 2.1654892 0.059652328 78 8
-1.2177784 0.99816054 -0.36352089 8 1
-3.7329473 3.0608253 0.25299203 74 9
-1.4056146 1.1529422 -0.3533783 6 2
-3.7289412 3.0597179 0.42200807 78 10
-1.6991714 1.3952181 -0.34822315 5 3
-4.2413654 3.4838958 0.6739375 93 11
-2.124213 1.7454687 -0.33757812 7 4
-4.2285519 3.4758451 0.86695993 80 12
-2.646569 2.1770127 -0.29981574 62 5
-4.2038255 3.4592094 1.0582268 75 13
-2.6584442 2.1883361 -0.1804544 65 6
-4.2211914 3.4759712 1.2624253 50 14
-2.6466506 2.1809535 -0.059861753 63 7
-4.2141075 3.4738426 1.4633629 61 15
-1.0522296 0.87078971 -0.36597013 7 0
-2.6339934 2.1805773 0.059687231 75 8
-1.2035314 0.99706393 -0.36082149 8 1
-3.7383997 3.0981715 0.25445744 73 9
-1.4146727 1.1728162 -0.35719445 6 2
-3.735873 3.098279 0.42462277 76 10
-1.6888025 1.4015731 -0.34759742 5 3
-4.1802998 3.4705522 0.66711289 24 11
-2.1119905 1.7540302 -0.33709061 7 4
-4.1662321 3.4613299 0.85788667 24 12
-2.6504552 2.2035768 -0.30155888 62 5
-4.1554666 3.4560647 1.0505943 41 13
-2.6484847 2.2035034 -0.18055905 66 6
-4.2553582 3.541656 1.2781719 28 14
-2.6474872 2.20502 -0.060140993 66 7
-4.2760096 3.5626347 1.4913154 28 15
-1.0506198 0.87876582 -0.36700544 7 0
-2.6394095 2.2084551 0.060071182 72 8
-1.1982943 1.0033518 -0.36082149 8 1
-3.7313128 3.1253984 0.25508547 63 9
-1.3994836 1.1726416 -0.35490477 6 2
-3.7470846 3.1408353 0.42776039 76 10
-1.684468 1.4129348 -0.34822315 5 3
-4.1316581 3.4668722 0.66223812 45 11
-2.0875728 1.7523024 -0.33465323 7 4
-4.1359496 3.472934 0.85538375 40 12
-2.6495583 2.2263968 -0.30277905 61 5
-4.1388168 3.4790385 1.050976 50 13
-2.6476116 2.2263384 -0.18129177 65 6
-4.2367554 3.563889 1.2781719 19 14
-2.6527338 2.2330172 -0.060524948 67 7
-4.2380862 3.5687988 1.484586 25 15
-1.0430534 0.88176048 -0.36597013 7 0
-2.6415527 2.2338657 0.060385328 67 8
-1.194512 1.0108711 -0.36127138 8 1
-3.6706905 3.1074686 0.25205001 29 9
-1.3933244 1.1799535 -0.35490477 6 2
-3.7427497 3.1707141 0.42915487 76 10
-1.6800601 1.4242903 -0.34884888 5 3
-4.116477 3.4910254 0.66272557 46 11
-2.0844245 1.7683455 -0.33562821 7 4
-4.1162024 3.4932635 0.85507089 28 12
-2.6469765 2.2479775 -0.3038249 64 5
-4.1280255 3.5070169 1.0528841 31 13
-2.6526587 2.2543986 -0.18244316 67 6
-4.1838894 3.5569918 1.2678242 18 14
-2.6425281 2.2481728 -0.060559854 63 7
-4.1855044 3.5621436 1.4726803 24 15
-1.0384222 0.88720965 -0.36597013 7 0
-2.6480615 2.2632568 0.060804185 70 8
-1.1921648 1.0196449 -0.3621712 8 1
-3.7439077 3.2032528 0.25822562 65 9
-1.3811607 1.1821265 -0.3533783 6 2
-3.7351778 3.1980422 0.43020076 67 10
-1.68458 1.4433498 -0.35135183 5 3
-4.144866 3.5525784 0.67028147 28 11
-2.0781505 1.7818198 -0.33611569 7 4
-4.1413379 3.5520642 0.86414409 22 12
-2.6427288 2.2682948 -0.30469647 68 5
-4.1513124 3.5643938 1.0635694 24 13
-2.6559703 2.2812696 -0.18348989 68 6
-4.1415582 3.5585303 1.2606257 14 14
-2.6428504 2.2724075 -0.060839087 64 7
-4.13311 3.5550351 1.4607747 24 15
-1.0249894 0.88505948 -0.36286432 7 0
-2.6361752 2.2770908 0.060804185 70 8
-1.1823865 1.0220501 -0.36082149 8 1
-3.7482359 3.2411013 0.25969106 63 9
-1.3838613 1.1970482 -0.35566798 6 2
-1.6590799 1.4366332 -0.34759742 6 3
-4.121706 3.5703332 0.66955024 22 11
-2.0657928 1.7900758 -0.33562821 7 4
-4.1077557 3.56076 0.86101538 18 12
-2.6428559 2.2925458 -0.30609095 66 5
-4.0940399 3.5526261 1.0536473 22 13
-2.6575632 2.3069284 -0.18443193 70 6
-4.1022687 3.5622792 1.2543271 14 14
-2.6460109 2.2993307 -0.061188139 71 7
-4.0867372 3.5525472 1.4509397 24 15
-1.0261636 0.895495 -0.36493486 7 0
-2.6377738 2.3026984 0.061118327 72 8
-1.169681 1.0218165 -0.35857198 6 1
-1.3820093 1.2081537 -0.35681283 6 2
-3.6324933 3.1766486 0.42218241 1 10
-1.6545078 1.4479024 -0.34822315 5 3
-3.6025953 3.1538332 0.58789778 27 11
-2.0623648 1.8060994 -0.33660313 7 4
-4.072711 3.5679014 0.85757387 16 12
-2.6457987 2.3194854 -0.30783406 68 5
-4.0591455 3.5597754 1.0494496 19 13
-2.6484506 2.3234458 -0.18464127 78 6
-4.0703793 3.5721397 1.2502779 13 14
-2.6459553 2.3237095 -0.061467376 70 7
-4.0521164 3.5598698 1.4452456 22 15
-1.0243585 0.90341109 -0.36597013 7 0
-2.6436753 2.3323534 0.061537188 71 8
-1.1643145 1.027927 -0.35857198 6 1
-3.5913346 3.1717608 0.25110796 14 9
-1.3771356 1.2166734 -0.35719445 6 2
-3.6187956 3.1982641 0.42253101 3 10
-1.643945 1.4539278 -0.34759742 5 3
-4.0394893 3.5738387 0.66223812 34 11
-2.0469341 1.8116105 -0.33562821 7 4
-4.0421424 3.5787001 0.85507089 20 12
-2.6500213 2.347841 -0.30975151 69 5
-4.0360441 3.5770724 1.0483047 22 13
-2.6511931 2.3505316 -0.18568799 75 6
-4.0282927 3.572715 1.2430795 19 14
-2.6502037 2.3521335 -0.06185133 67 7
-4.0363102 3.5836036 1.4462808 28 15
-1.0224987 0.91133291 -0.36700544 8 0
-2.6523228 2.364795 0.062025853 71 8
-1.1647332 1.0391984 -0.36037159 8 1
-3.6417305 3.2503688 0.25581816 14 9
-1.3546369 1.2094845 -0.35299668 6 2
-4.018074 3.5887871 0.47133827 6 10
-1.6392552 1.4651484 -0.34822315 5 3
-4.0281219 3.6015549 0.66345674 24 11
-2.0433385 1.827597 -0.33660313 7 4
-4.0351257 3.6103539 0.85757387 20 12
-2.6525357 2.3749745 -0.31149462 75 5
-4.0318828 3.6112547 1.0521209 24 13
-2.6462874 2.3710446 -0.18621135 66 6
-4.0269446 3.6093657 1.2484783 20 14
-2.6393399 2.3673134 -0.061886236 68 7
-4.0333085 3.6188796 1.4519749 32 15
-1.0119711 0.91150272 -0.36493486 7 0
-2.6503043 2.3880191 0.062270187 70 8
-1.1679595 1.0531127 -0.36307099 6 1
-3.5030503 3.1596985 0.24723509 9 9
-1.3453703 1.2139302 -0.35223341 5 2
-4.0021853 3.6124468 0.47168687 2 10
-1.6432886 1.4843041 -0.3507261 5 3
-4.0268831 3.6385677 0.66638166 25 11
-2.0278504 1.8329468 -0.33562821 7 4
-4.0278888 3.6420305 0.86007679 20 12
-2.6489279 2.3968518 -0.3125405 75 5
-4.0274749 3.6454909 1.0559371 22 13
-2.6516027 2.400955 -0.18746741 66 6
-4.0238776 3.6447926 1.2534273 16 14
-2.6387618 2.391844 -0.062165473 68 7
-4.028616 3.6529257 1.4571513 13 15
-1.0043274 0.91418797 -0.36389959 8 0
-2.6392426 2.4032102 0.062305093 72 8
-1.1681912 1.0644637 -0.36487061 8 1
-4.0311241 3.6744754 0.28585902 21 9
-1.3375449 1.2196352 -0.35185182 6 2
-3.98616 3.6360376 0.4720355 2 10
-1.6267403 1.4848976 -0.34884888 5 3
-4.0224361 3.6729872 0.66881901 24 11
-2.0240884 1.8488939 -0.33660313 6 4
-4.0568862 3.7070439 0.87040144 12 12
-2.6481047 2.4214442 -0.31393498 73 5
-4.3980103 4.0229788 1.1585923 7 13
-2.6493096 2.4242432 -0.18820012 65 6
-2.6483212 2.4258876 -0.062689044 63 7
-4.3213582 3.9597948 1.5705141 2 15
-1.0023705 0.92204994 -0.36493486 8 0
-2.6398668 2.4291823 0.062619232 70 8
-1.142532 1.0520852 -0.35857198 8 1
-4.0309272 3.7131228 0.28721976 24 9
-1.348466 1.2425861 -0.35643122 6 2
-4.0080853 3.6946707 0.47691619 26 10
-1.6073276 1.4826797 -0.34634593 5 3
-4.0089841 3.6993837 0.66979396 21 11
-2.0114625 1.8567742 -0.33611569 7 4
-4.0490313 3.738956 0.87290442 22 12
-2.6470964 2.4460936 -0.31532949 73 5
-4.3682356 4.0379553 1.1563026 7 13
-2.6439118 2.4448624 -0.18872347 66 6
-2.6487896 2.451947 -0.06300319 62 7
-4.2835565 3.9666157 1.5643023 2 15
-1.003189 0.93254662 -0.36700544 8 0
-2.6446838 2.4593127 0.063038096 70 8
-1.1386192 1.0591817 -0.35902187 8 1
-4.0231242 3.745065 0.28805712 22 9
-1.3361942 1.2442782 -0.35490477 6 2
-4.0178423 3.7427669 0.48040244 26 10
-1.6142542 1.5042632 -0.34947464 5 3
-4.0127883 3.7419848 0.67369378 24 11
-1.9959068 1.8618642 -0.33514073 6 4
-4.0207338 3.7520187 0.87102723 36 12
-2.6434197 2.4676182 -0.31637534 64 5
-4.0113225 3.7471673 1.067004 33 13
-2.644207 2.4709454 -0.18966553 65 6
-2.6421874 2.4707861 -0.063142806 63 7
-4.0475726 3.7863269 1.4851037 7 15
-1.0011084 0.94043201 -0.36804068 8 0
-2.6405137 2.4813433 0.063247517 66 8
-1.1401571 1.0718026 -0.36127138 6 1
-4.0157576 3.7763259 0.2888945 22 9
-1.3184391 1.2402639 -0.35185182 6 2
-4.027205 3.7910657 0.48388866 26 10
-1.5977272 1.5045695 -0.34759742 6 3
-4.0183616 3.785387 0.67783737 22 11
-1.9777894 1.8637737 -0.33367831 6 4
-4.0240273 3.794703 0.87603313 42 12
-2.6464055 2.496464 -0.31829277 58 5
-4.0251451 3.798414 1.0757812 48 13
-2.6476436 2.499378 -0.19081691 66 6
-4.2618542 4.0246024 1.3533056 7 14
-2.6350286 2.4900796 -0.063282423 62 7
-4.0164609 3.7968504 1.4809626 22 15
-0.98512489 0.93484867 -0.36389959 8 0
-2.6438749 2.5098197 0.063631475 65 8
-1.1359422 1.0791 -0.36172128 8 1
-4.0161991 3.8165612 0.29035991 26 9
-1.3176192 1.2525605 -0.3533783 6 2
-4.0122962 3.81552 0.4844116 20 10
-1.5955514 1.5183613 -0.34884888 5 3
-4.0214901 3.828275 0.68173718 22 11
-1.9823793 1.8877933 -0.33611569 7 4
-4.0176415 3.8272851 0.87884891 51 12
-2.636183 2.5130348 -0.31864139 53 5
-4.0350385 3.8478897 1.0837952 54 13
-2.6518619 2.5297501 -0.19207297 72 6
-4.2209859 4.0280271 1.3470069 6 14
-2.6306314 2.5121291 -0.063491859 62 7
-4.0049067 3.8258362 1.4840684 29 15
-0.9802168 0.93999368 -0.36389959 8 0
-2.6292536 2.5222447 0.063596569 63 8
-1.128871 1.0836834 -0.36127138 8 1
-4.0192094 3.8596728 0.29203469 26 9
-1.3110425 1.2594426 -0.3533783 7 2
-4.006629 3.8502808 0.48615471 22 10
-1.5761888 1.5157408 -0.34634593 6 3
-4.0199885 3.8671696 0.68490577 24 11
-1.9810495 1.9064062 -0.33757812 7 4
-4.016047 3.8660781 0.88291621 48 12
-2.6359024 2.5392444 -0.32021019 45 5
-4.0176625 3.8716898 1.0845585 60 13
-2.6486456 2.5533035 -0.19280569 68 6
-4.1900187 4.0406032 1.3438576 8 14
-2.6375873 2.5453088 -0.06398052 62 7
-4.0001097 3.8615108 1.4897624 30 15
-0.98083067 0.95049089 -0.36597013 8 0
-2.6332409 2.5526791 0.064015426 66 8
-1.1217827 1.0882224 -0.36082149 8 1
-4.0276113 3.9084823 0.29412812 24 9
-1.318517 1.2799646 -0.35719445 6 2
-4.0064259 3.8906391 0.4885951 23 10
-1.5710642 1.526726 -0.34697169 5 3
-4.012495 3.9006188 0.68709946 22 11
-1.9653476 1.9112173 -0.33660313 7 4
-4.015573 3.9063365 0.88729644 57 12
-2.6311362 2.5613501 -0.32125604 37 5
-4.0029626 3.8981504 1.0860848 58 13
-2.6438236 2.5754988 -0.1934337 68 6
-4.1492643 4.0434461 1.337559 8 14
-2.6442666 2.5786304 -0.064469188 68 7
-4.0047274 3.9066849 1.4990799 34 15
-0.97584057 0.95561337 -0.36597013 8 0
-2.634124 2.5804248 0.064364478 64 8
-1.1132863 1.0913525 -0.35992166 8 1
-4.0184989 3.9407048 0.29496548 26 9
-1.306191 1.2813516 -0.35566798 6 2
-4.0158625 3.9408684 0.49225563 27 10
-1.564458 1.5363154 -0.34728456 6 3
-4.0118432 3.9410491 0.69051176 22 11
-1.9468187 1.9131334 -0.33514073 6 4
-4.0077424 3.9397724 0.89011216 31 12
-2.6290519 2.5862691 -0.32265055 24 5
-3.993691 3.9300733 1.0891378 30 13
-2.6402664 2.5991142 -0.19416642 66 6
-4.0016828 3.9406879 1.2966179 19 14
-2.6449721 2.6064765 -0.064818241 68 7
-4.0034781 3.9465866 1.5063269 35 15
-0.97356987 0.96342772 -0.36700544 8 0
-2.6390522 2.6124701 0.064818241 71 8
-1.1158632 1.1053957 -0.3626211 8 1
-4.0119987 3.975749 0.29601219 22 9
-1.2966754 1.2854089 -0.35490477 6 2
-4.017808 3.9842885 0.49504462 27 10
-1.5591968 1.5472686 -0.34791031 6 3
-4.0122843 3.9829791 0.69416779 24 11
-1.9395922 1.9260979 -0.33562821 6 4
-3.9940665 3.9676635 0.89167655 19 12
-2.6197128 2.6042135 -0.32317349 13 5
-3.9995089 3.9772327 1.0963886 24 13
-2.6450284 2.6312146 -0.19552715 70 6
-3.9892819 3.9698346 1.2993174 20 14
-2.6298721 2.6188781 -0.064783335 66 7
-3.9978137 3.9824927 1.5120209 36 15
-0.96304804 0.96304786 -0.36493486 8 0
-2.6394742 2.6403954 0.065167286 71 8
-1.1128147 1.1139804 -0.36352089 8 1
-4.198586 4.2044511 0.31139898 17 9
-1.2829922 1.2852333 -0.35299668 6 2
-4.1291833 4.1378393 0.51142991 12 10
-1.5622325 1.5666015 -0.35041323 6 3
-4.4006028 4.4144478 0.76533955 9 11
-1.9378879 1.9446634 -0.33709061 7 4
-4.0819778 4.097682 0.91608036 38 12
-2.5933914 2.6051857 -0.32160467 11 5
-4.1960478 4.2166038 1.1563026 20 13
-2.6537521 2.6676838 -0.19720189 70 6
-4.1154723 4.1385202 1.3474568 35 14
-2.641495 2.6581442 -0.06541162 66 7
-4.0354505 4.0623035 1.5342795 28 15
-0.95799249 0.96807718 -0.36493486 8 0
-2.6340511 2.6627088 0.065376714 71 8
-1.0989406 1.1112846 -0.36082149 8 1
-4.4123631 4.465044 0.32898384 38 9
-1.2817641 1.2975199 -0.35452312 5 2
-4.3482523 4.4032407 0.54141146 14 10
-1.5362426 1.5562131 -0.34634593 5 3
-4.4206448 4.4812393 0.77289546 42 11
-1.9332542 1.9604378 -0.33806559 7 4
-3.9883554 4.045846 0.89981115 23 12
-2.5717809 2.6097643 -0.32055882 9 5
-3.9493752 4.0105033 1.0940988 24 13
-2.6509571 2.6929286 -0.19803928 68 6
-3.9529598 4.0169468 1.3011169 21 14
-2.6378238 2.6814585 -0.065655954 70 7
-3.9471114 4.0138049 1.5083975 35 15
-0.95561379 0.97584021 -0.36597013 8 0
-2.6354604 2.6921833 0.065760665 72 8
-1.0876548 1.1114525 -0.35902187 8 1
-4.3743453 4.4716134 0.32783246 15 9
-1.2765529 1.3053948 -0.35490477 5 2
-4.061954 4.1566272 0.5084666 8 10
-1.5322145 1.5684745 -0.34728456 6 3
-3.9651897 4.0604434 0.69684899 10 11
-1.9205333 1.967357 -0.33757812 7 4
-3.942287 4.0412216 0.89417946 14 12
-2.5733821 2.6388853 -0.32247624 9 5
-3.9345078 4.0360646 1.0956253 16 13
-2.6400812 2.709172 -0.19824862 70 6
-3.9448149 4.0494666 1.305166 14 14
-2.643276 2.7152934 -0.066144623 68 7
-3.952987 4.062108 1.5187503 24 15
-0.95604086 0.98621303 -0.36804068 8 0
-2.6371081 2.7212842 0.066144623 71 8
-1.0763979 1.1115323 -0.35722226 8 1
-3.9313428 4.0610833 0.29622155 21 9
-1.2710656 1.3134719 -0.35528636 5 2
-3.9369669 4.0697346 0.49539325 19 10
-1.5308456 1.5835772 -0.34884888 5 3
-3.913527 4.0497451 0.69148672 13 11
-1.9046898 1.9716746 -0.33660313 7 4
-4.0205808 4.163434 0.91670603 12 12
-2.5581467 2.6508887 -0.32230192 7 5
-4.1777525 4.3307252 1.1696591 1 13
-2.6424971 2.7402103 -0.19950469 70 6
-4.095325 4.2482443 1.3623036 12 14
-2.6428962 2.7434976 -0.066493668 66 7
-3.9665046 4.1189294 1.5322088 22 15
-0.94818908 0.98841733 -0.36700544 8 0
-2.6380484 2.7509308 0.066528574 70 8
-1.0732597 1.1199673 -0.35812208 8 1
-3.932132 4.1046877 0.2978963 15 9
-1.2519504 1.3073472 -0.35185182 6 2
-3.9569361 4.1334701 0.50062257 19 10
-1.5279955 1.5972801 -0.35010037 6 3
-3.9334276 4.1132212 0.69879889 15 11
-1.8998269 1.9873599 -0.33757812 7 4
-4.2061701 4.4015036 0.96426219 6 12
-2.5456076 2.6656883 -0.32247624 8 5
-4.1902666 4.3894625 1.1795813 1 13
-2.65569 2.7829077 -0.20159812 61 6
-4.1053076 4.3034711 1.3731012 13 14
-2.6353936 2.7645357 -0.06666819 66 7
-4.0181842 4.2165599 1.5606788 31 15
-0.94300109 0.99336809 -0.36700544 8 0
-2.8617423 3.0156474 0.072567105 55 8
-1.0754268 1.1340553 -0.36082149 9 1
-3.9559295 4.1730537 0.30135047 15 9
-1.2477887 1.3167347 -0.35261503 6 2
-3.965385 4.1859517 0.50445741 17 10
-1.5168951 1.6023899 -0.34947464 5 3
-3.9609566 4.1856661 0.70757347 13 11
-1.8866663 1.994396 -0.33709061 6 4
-4.2074966 4.4493017 0.96989381 10 12
-2.5179307 2.664499 -0.32073313 6 5
-4.1402631 4.3827987 1.1719489 1 13
-2.890655 3.0610592 -0.22064841 51 6
-4.1041222 4.34758 1.3802997 12 14
-2.8898313 3.0633998 -0.073509537 49 7
-4.0106311 4.2530017 1.566373 25 15
-0.93778682 0.99829215 -0.36700544 7 0
-2.8705544 3.0568285 0.07319539 63 8
-1.0721409 1.1425128 -0.36172128 9 1
-3.9627202 4.2242999 0.30354857 14 9
-1.2462491 1.3289783 -0.3541415 6 2
-3.981566 4.2473578 0.50933814 17 10
-1.4949795 1.5958939 -0.34634593 6 3
-3.9756222 4.2454696 0.71415442 12 11
-1.8870504 2.0158412 -0.33904055 6 4
-4.1719952 4.4582896 0.96707797 10 12
-2.5148313 2.6892889 -0.32212761 6 5
-4.048883 4.3312731 1.1524864 5 13
-2.8936787 3.0965831 -0.22211383 51 6
-4.105247 4.3946433 1.3883979 12 14
-2.8792102 3.0843356 -0.073649161 42 7
-0.93254691 1.0031886 -0.36700544 8 0
-2.8667605 3.0850008 0.073509537 50 8
-1.0581878 1.1395428 -0.35902187 9 1
-3.9949009 4.3035407 0.30773544 14 9
-1.244615 1.341242 -0.35566798 6 2
-3.9917922 4.3032031 0.51352161 17 10
-1.4866028 1.6036999 -0.34634593 6 3
-3.9776254 4.2924366 0.71854174 12 11
-1.871074 2.0198689 -0.33806559 6 4
-4.1190667 4.4481874 0.96019489 8 12
-2.4980097 2.6994946 -0.32177898 6 5
-4.0434799 4.3711495 1.1574475 11 13
-2.8882742 3.1234219 -0.2229512 51 6
-4.102571 4.4396896 1.3955964 8 14
-2.8860886 3.1243396 -0.07424254 45 7
-4.4468646 4.8156462 1.7563461 83 15
-0.92710567 1.0082194 -0.36700544 7 0
-2.8757396 3.1284375 0.074172728 47 8
-1.0495696 1.1421982 -0.35812208 8 1
-3.9912298 4.3449912 0.30920088 14 9
-1.2373401 1.3479563 -0.35566798 6 2
-4.0196395 4.3805227 0.52014548 17 10
-1.4808562 1.614373 -0.34697169 5 3
-3.9980276 4.360024 0.72634137 13 11
-1.8574361 2.0270355 -0.33757812 6 4
-3.9975362 4.3640733 0.9373554 14 12
-2.4824958 2.7110674 -0.32160467 6 5
-4.0059557 4.3763309 1.1532496 15 13
-2.8848128 3.1537409 -0.22399792 49 6
-4.0016809 4.3762589 1.3690522 15 14
-2.8858805 3.1571202 -0.074661396 45 7
-4.4507113 4.8724408 1.7682518 81 15
-0.92701441 1.0187755 -0.36907598 7 0
-2.8781574 3.1641624 0.074661396 43 8
-1.0488187 1.1534451 -0.35992166 8 1
-4.0106425 4.4138241 0.31255037 14 9
-1.2249852 1.3486034 -0.3541415 9 2
-4.0234356 4.4310098 0.52363169 17 10
-1.4790217 1.6294179 -0.34853604 6 3
-4.0210581 4.433053 0.73487222 13 11
-1.8521309 2.0426152 -0.33855307 6 4
-4.0051436 4.4186082 0.94455141 19 12
-2.4709427 2.7269814 -0.32195333 6 5
-4.019115 4.4386902 1.1639349 18 13
-2.8870249 3.1895323 -0.22546332 51 6
-4.0061693 4.4274979 1.3785001 20 14
-2.8760169 3.1796026 -0.074835919 42 7
-4.4532022 4.9249973 1.7791222 82 15
-0.91649663 1.0178728 -0.36700544 8 0
-2.8802798 3.1999969 0.075150065 47 8
-1.042765 1.1589208 -0.35992166 8 1
-4.3515468 4.8379745 0.34102112 33 9
-1.2168312 1.3533263 -0.35375988 6 2
-4.4049907 4.9025531 0.57662237 27 10
-1.4665099 1.6327307 -0.34759742 6 3
-4.4600945 4.9673676 0.81969327 31 11
-1.8417683 2.0519638 -0.33855307 7 4
-4.4475474 4.9586139 1.0549942 61 12
-2.4473193 2.7294979 -0.32073313 6 5
-4.455225 4.9706602 1.2975012 45 13
-2.8948343 3.23088 -0.22734742 49 6
-4.442667 4.960134 1.5373155 46 14
-2.8793342 3.2169681 -0.075359493 45 7
-4.4453874 4.9684029 1.7863692 76 15
-0.90619183 1.0167297 -0.36493486 8 0
-2.876019 3.2279716 0.075464211 49 8
-1.0368857 1.1641841 -0.35992166 9 1
-4.4509749 5.0009341 0.3508603 15 9
-1.2110333 1.361146 -0.3541415 6 2
-4.4569197 5.0111318 0.58673245 51 10
-1.4556018 1.6371801 -0.34697169 6 3
-4.4669881 5.0277505 0.82578677 37 11
-1.8309993 2.061579 -0.33855307 6 4
-3.9043489 4.3975735 0.93141097 14 12
-2.4414091 2.7507901 -0.32177898 6 5
-4.4538879 5.0218272 1.304752 49 13
-2.9004018 3.2713995 -0.22912684 43 6
-4.4476566 5.0183287 1.5481132 52 14
-2.8855584 3.2569449 -0.075952873 43 7
-4.4470797 5.0212097 1.7972395 79 15
-0.91107816 1.0330516 -0.36907598 7 0
-2.867012 3.2519865 0.07567364 43 8
-1.0307759 1.1695971 -0.35992166 8 1
-4.457293 5.0593648 0.35337242 40 9
-1.2067237 1.3702047 -0.35490477 6 2
-4.4661593 5.0747833 0.59143883 53 10
-1.4496194 1.6477454 -0.34759742 5 3
-4.4545918 5.0652032 0.82822412 46 11
-1.8284055 2.0797651 -0.3400155 7 4
-4.4575286 5.0738969 1.069699 60 12
-2.4309163 2.7680271 -0.32230192 6 5
-4.4594979 5.0797157 1.3139107 78 13
-2.8811731 3.2830346 -0.22891749 42 6
-4.4491882 5.0715389 1.557561 53 14
-2.885603 3.2915568 -0.076406635 42 7
-4.4512873 5.0792937 1.8096628 92 15
-0.90311629 1.0348967 -0.36804068 8 0
-2.8762364 3.297091 0.076371737 42 8
-1.0244328 1.175157 -0.35992166 8 1
-4.4652829 5.1240616 0.35619855 78 9
-1.2018715 1.3796744 -0.35566798 6 2
-4.4643865 5.126647 0.59475076 57 10
-1.4458698 1.6615251 -0.34884888 5 3
-4.4453607 5.1101985 0.83163649 57 11
-1.8041005 2.0746477 -0.33757812 6 4
-4.4451556 5.1135669 1.0731405 52 12
-2.4054515 2.7691057 -0.32090744 6 5
-4.4396729 5.1126633 1.3162005 56 13
-2.8856249 3.3242157 -0.2306969 40 6
-4.4357333 5.1117268 1.56251 45 14
-2.883472 3.3252511 -0.0768255 40 7
-4.4325981 5.1135225 1.8132863 65 15
-0.89768505 1.0396115 -0.36804068 8 0
-2.8824527 3.3393538 0.077000014 43 8
-1.0233568 1.1864074 -0.36172128 8 1
-4.4383912 5.1473722 0.35619855 70 9
-1.189504 1.3800002 -0.3541415 6 2
-4.4309797 5.142405 0.59387922 23 10
-1.4397284 1.6720667 -0.34947464 6 3
-4.4198384 5.1349087 0.83188021 39 11
-1.7893283 2.0795517 -0.33684689 6 4
-4.4093041 5.1262879 1.0709505 37 12
-2.383127 2.7725973 -0.31986156 6 5
-2.8929062 3.3680661 -0.23268569 43 6
-4.4101763 5.1363616 1.5629599 33 14
-2.8790436 3.3554795 -0.077174544 40 7
-3.8901014 4.5354528 1.6010547 8 15
-0.88219053 1.0325469 -0.36389959 8 0
-2.8792136 3.3711271 0.077383965 43 8
-1.0173392 1.1915716 -0.36172128 8 1
-4.4308233 5.1933327 0.35776863 33 9
-1.1771665 1.380234 -0.35261503 6 2
-4.4195065 5.1837273 0.59597093 21 10
-1.4389343 1.6883531 -0.35135183 5 3
-4.4208279 5.1889443 0.83699876 36 11
-1.7887099 2.1009843 -0.33879682 6 4
-4.4080095 5.17939 1.0772078 33 12
-2.3742268 2.7906942 -0.32055882 6 5
-4.4198599 5.1969929 1.3261225 36 13
-2.8946319 3.4059958 -0.23425576 40 6
-2.8827336 3.3943961 -0.077733018 40 7
-4.4147148 5.2001309 1.8277801 43 15
-0.87944788 1.0399492 -0.36493486 7 0
-2.872443 3.3978736 0.077663213 38 8
-1.0087794 1.1937288 -0.36082149 8 1
-4.4534492 5.2736773 0.36174616 7 9
-1.1828293 1.4011766 -0.35643122 6 2
-4.4613137 5.2867322 0.60520947 53 10
-1.4176339 1.6805151 -0.34822315 5 3
-4.4508138 5.2780266 0.84772325 60 11
-1.788287 2.1221542 -0.34074673 6 4
-4.4568233 5.290771 1.0956671 57 12
-2.3677723 2.8118188 -0.32160467 6 5
