# .PCD v0.7 - Point Cloud Data file format
VERSION 0.7
FIELDS x y z intensity ring
SIZE 4 4 4 4 2
TYPE F F F F U
COUNT 1 1 1 1 1
WIDTH 1293
HEIGHT 1
VIEWPOINT 0 0 0 1 0 0 0
POINTS 1293
DATA ascii
2.0195618 1.2821475 -0.37888432 7 3
2.973346 1.8869431 0.43239245 55 11
2.1875122 1.3877021 -0.31807902 71 4
2.9127383 1.8470544 0.54626918 3 12
2.1895506 1.3873881 -0.22677925 69 5
3.8196359 2.419342 0.87886631 84 13
2.217324 1.4039022 -0.1375389 60 6
3.7988219 2.4043012 1.0379242 70 14
2.1987936 1.3905573 -0.045411162 59 7
3.7998059 2.4021382 1.2045439 72 15
1.2081904 0.76054406 -0.38253456 8 0
2.9449513 1.8530989 0.060734376 50 8
1.4039248 0.88273013 -0.38286668 7 1
2.9558597 1.8578031 0.18296652 42 9
1.6540749 1.0392098 -0.37970993 6 2
2.9560487 1.8564827 0.30539373 50 10
2.011188 1.2621059 -0.3760685 7 3
2.976459 1.8671288 0.43141752 50 11
2.1947484 1.376229 -0.31807902 73 4
2.9190216 1.8296808 0.54564345 1 12
2.1866536 1.3695588 -0.22573337 73 5
3.8072896 2.3836832 0.873142 82 13
2.2178726 1.3880345 -0.13712022 59 6
3.8179672 2.3885112 1.0397238 72 14
2.2111313 1.3822049 -0.045515876 60 7
3.8025014 2.3760667 1.2014381 71 15
1.2187172 0.75828981 -0.38460511 8 0
2.9444249 1.8313178 0.060524948 50 8
1.3951348 0.86738199 -0.37926748 8 1
2.9485805 1.8317623 0.1819198 42 9
1.6544901 1.0274274 -0.37856507 5 2
2.965728 1.8409804 0.30539373 55 10
2.0242646 1.2560762 -0.37731999 6 3
2.9625742 1.8368748 0.42800516 50 11
2.1884253 1.3563532 -0.31612909 74 4
2.9571097 1.8320558 0.55096221 2 12
2.1969447 1.3605722 -0.226082 75 5
3.8113723 2.3585477 0.87123388 87 13
2.1996312 1.3606429 -0.13555014 55 6
3.8072157 2.3541405 1.0334252 70 14
2.2198005 1.3720468 -0.045550782 57 7
3.8111913 2.3547604 1.2004027 72 15
1.2226709 0.75189799 -0.38460511 8 0
2.9488621 1.8127351 0.06042023 51 8
1.3930161 0.85598403 -0.37746787 7 1
2.9476037 1.8105422 0.18129177 47 9
1.6713803 1.0262315 -0.3812364 6 2
2.968534 1.8212587 0.30469647 50 10
2.0442846 1.2537224 -0.37982294 6 3
2.9650645 1.8177059 0.42703021 55 11
2.1817219 1.336961 -0.31417918 76 4
2.971715 1.8196429 0.55190086 1 12
2.2023394 1.3480098 -0.22590767 71 5
3.811537 2.3320572 0.86856258 86 13
2.1962669 1.3432394 -0.1349221 54 6
3.8024564 2.3246751 1.0289261 72 14
2.2184212 1.3551935 -0.045376256 60 7
3.816874 2.330745 1.1983322 72 15
1.2264608 0.7457003 -0.38460511 7 0
2.9579995 1.7977859 0.06042023 51 8
1.4241289 0.86486346 -0.38466629 7 1
2.9450912 1.78783 0.18055905 48 9
1.6666609 1.0113543 -0.37894669 6 2
2.9674928 1.8000115 0.30365062 48 10
2.0474432 1.2409524 -0.37919718 6 3
2.9643538 1.7959852 0.42556778 50 11
2.1802022 1.3203784 -0.31296051 78 4
3.8190501 2.3119876 0.70708382 75 12
2.202548 1.3323361 -0.22521043 71 5
3.8186567 2.3090181 0.86741769 87 13
2.2066886 1.3337874 -0.13513145 54 6
3.7962282 2.2936494 1.0239772 70 14
2.2032318 1.3301235 -0.044922493 56 7
3.8108308 2.2997496 1.1926383 70 15
1.2270367 0.73727816 -0.38356987 8 0
2.9519434 1.7730076 0.060106091 55 8
1.4186124 0.85137796 -0.38196689 7 1
2.9509861 1.770331 0.18034972 48 9
1.6685656 1.000595 -0.37818345 6 2
2.9563706 1.7721564 0.30155888 51 10
2.0573015 1.2322458 -0.37982294 6 3
2.9686079 1.7773798 0.42483655 51 11
2.1836798 1.3069047 -0.31247303 80 4
3.8005898 2.2737064 0.7014522 78 12
2.199234 1.3146502 -0.22416456 71 5
3.8172112 2.2809372 0.8643648 84 13
2.2102122 1.3201673 -0.1349221 55 6
3.8065138 2.2727396 1.0235273 75 14
2.2067311 1.3165208 -0.044852685 57 7
3.7995927 2.2659097 1.1853913 70 15
1.2275579 0.72887123 -0.38253456 8 0
2.9474301 1.7493601 0.059826851 57 8
1.4230504 0.84393895 -0.38196689 7 1
2.9533441 1.7507796 0.17993104 52 9
1.683916 0.99784952 -0.38047317 6 2
2.9518945 1.7485301 0.30016437 50 10
2.0637257 1.2214565 -0.37982294 7 3
2.9744561 1.7597911 0.42434907 53 11
2.1939099 1.2974746 -0.31296051 78 4
3.8107431 2.2527697 0.70113939 77 12
2.1940787 1.2960244 -0.22294438 75 5
3.8054345 2.2469435 0.85902214 84 13
2.2033343 1.3004547 -0.13408473 55 6
3.8066123 2.2458475 1.020378 73 14
2.2135942 1.304948 -0.044852685 57 7
3.8014176 2.2401006 1.1822854 70 15
1.2346903 0.72438818 -0.38356987 8 0
2.9496489 1.7298579 0.059687231 57 8
1.4072744 0.82465237 -0.37656805 7 1
2.9555764 1.7312552 0.17951234 52 9
1.6857288 0.98703545 -0.37970993 6 2
2.9592907 1.7320418 0.29999006 53 10
2.0615666 1.2056488 -0.37825859 7 3
2.9630654 1.732169 0.42142424 51 11
2.1869614 1.277958 -0.31101057 80 4
3.8122509 2.226809 0.69926214 77 12
2.200834 1.2845193 -0.22294438 75 5
3.8035803 2.2190742 0.85596919 78 13
2.2014868 1.283869 -0.13356137 58 6
3.8115845 2.221961 1.0185784 73 14
2.2169411 1.2913266 -0.044782877 57 7
3.8097548 2.2182226 1.1812501 70 15
1.2451514 0.72178918 -0.38564041 8 0
2.9586663 1.7143894 0.059687231 60 8
1.428293 0.82728672 -0.3810671 7 1
2.9455862 1.7047508 0.17836095 56 9
1.6874752 0.97622901 -0.37894669 6 2
2.9614198 1.7125349 0.29929283 53 10
2.0744834 1.1991527 -0.37951005 7 3
2.9583421 1.7086887 0.4194743 51 11
2.1798697 1.258549 -0.30906066 80 4
3.8135929 2.2008927 0.69738495 80 12
2.2021303 1.2703764 -0.22242144 71 5
3.8100448 2.1961865 0.8548243 76 13
2.2047176 1.270331 -0.13335203 61 6
3.799525 2.1883562 1.0122797 73 14
2.2165167 1.2760978 -0.044643257 59 7
3.8142364 2.1950567 1.1791797 63 15
1.2489134 0.71526015 -0.38564041 8 0
2.95719 1.6929132 0.059477802 60 8
1.4410621 0.8246361 -0.38331661 6 1
2.9472413 1.6858542 0.17794226 56 9
1.6889862 0.9657262 -0.37818345 6 2
2.9668851 1.6950295 0.29894418 55 10
2.0807338 1.188274 -0.37951005 7 3
2.963505 1.6917248 0.41898686 51 11
2.1862113 1.2475002 -0.30906066 80 4
3.8096206 2.1720881 0.69456911 84 12
2.2035589 1.2558687 -0.22189851 73 5
3.8194063 2.1759017 0.85444272 78 13
2.2163262 1.2621205 -0.13366605 65 6
3.8003917 2.1633122 1.0095804 78 14
2.211 1.2575549 -0.044398922 60 7
3.8156011 2.1693256 1.1760738 66 15
1.2424303 0.70321995 -0.38253456 8 0
2.9604995 1.6749692 0.059373088 61 8
1.4436634 0.8161208 -0.38286668 7 1
2.949074 1.6664672 0.17752358 56 9
1.6906004 0.95493889 -0.37742022 6 2
2.9546077 1.6682358 0.29685244 53 10
2.0972502 1.1831865 -0.38138729 7 3
2.9654052 1.6722853 0.41801187 53 11
2.1892557 1.2340852 -0.30857319 80 4
3.1889679 1.7968905 0.57974619 33 12
2.1979516 1.2374711 -0.22067833 78 5
3.2473238 1.8275331 0.72431099 17 13
2.2194223 1.2485409 -0.13345671 68 6
3.8133652 2.1443384 1.0100303 73 14
2.2105803 1.2420435 -0.044259302 61 7
3.806695 2.137965 1.169862 70 15
1.2460952 0.6967054 -0.38253456 8 0
2.9447906 1.6457881 0.05888442 62 8
1.4564242 0.81330115 -0.38511622 7 1
2.9595025 1.6519774 0.17762825 57 9
1.7058641 0.95181322 -0.37970993 6 2
2.9546027 1.6478882 0.2959809 55 10
2.0930629 1.1664202 -0.37951005 7 3
2.9689193 1.6538358 0.41728067 55 11
2.1991556 1.2245376 -0.30906066 78 4
3.2086883 1.7859337 0.58162344 86 12
2.1991768 1.2230413 -0.22015539 75 5
3.2088017 1.783797 0.71362567 72 13
2.2189467 1.2330209 -0.13303801 68 6
3.8126152 2.1177199 1.006881 78 14
2.2100604 1.2265689 -0.044119682 61 7
3.8093901 2.1133196 1.167274 72 15
1.2598732 0.69577408 -0.38564041 8 0
2.9358611 1.6206821 0.058535371 58 8
1.4384798 0.79342836 -0.37926748 7 1
2.9453745 1.6239223 0.17626752 58 9
1.7108241 0.94286889 -0.37970993 6 2
2.9544644 1.6275896 0.29510933 53 10
2.0974109 1.1544932 -0.37919718 7 3
2.960145 1.6286994 0.41484326 57 11
2.195101 1.207266 -0.30759826 82 4
3.2231879 1.7719647 0.58256203 100 12
2.2055504 1.2115093 -0.22015539 75 5
3.2267015 1.7716969 0.71553379 100 13
2.2078631 1.2117767 -0.1319913 64 6
3.809983 2.0902288 1.0032817 78 14
2.2304802 1.2226709 -0.044398922 60 7
3.815321 2.0905592 1.1657211 70 15
1.2634987 0.68916833 -0.38564041 7 0
2.9407947 1.6033742 0.058465563 62 8
1.4511706 0.79054737 -0.38151699 7 1
2.9327877 1.5970173 0.17501146 58 9
1.7088406 0.9301427 -0.37818345 6 2
2.9576952 1.6092421 0.29458639 56 10
2.1173115 1.1510417 -0.38170013 7 3
2.9529343 1.6046486 0.41264963 58 11
2.1874368 1.1881766 -0.30564833 80 4
3.2133269 1.7446935 0.57912046 59 12
2.2083609 1.1980453 -0.21980678 73 5
3.2134991 1.7426093 0.71057272 93 13
2.2071538 1.1963935 -0.1315726 68 6
3.8003142 2.0591123 0.9978829 81 14
2.2227833 1.2033588 -0.044119682 61 7
3.8143208 2.0641189 1.1620976 71 15
1.273893 0.68620765 -0.38771093 8 0
2.9526706 1.5898514 0.058535371 82 8
1.4535739 0.78201479 -0.3810671 7 1
2.9358323 1.578801 0.17469743 57 9
1.7171456 0.92304212 -0.37894669 6 2
2.9695909 1.5956192 0.29493502 56 10
2.1163476 1.1362032 -0.38044867 7 3
2.9595466 1.5882258 0.41240588 56 11
2.186631 1.1729532 -0.30467337 78 4
3.2241585 1.7287793 0.57943332 100 12
2.2058229 1.18176 -0.21893522 82 5
3.227771 1.7285411 0.71171761 96 13
2.2169096 1.1867052 -0.13178195 66 6
3.8007352 2.0336668 0.99518347 79 14
2.2149451 1.1841621 -0.043840446 62 7
3.8182623 2.0404744 1.160027 72 15
1.2706461 0.67589968 -0.38564041 8 0
2.9468305 1.5668572 0.058256131 83 8
1.4782999 0.78536493 -0.38646591 7 1
2.940531 1.5615335 0.1744881 57 9
1.7219547 0.91403908 -0.37894669 6 2
2.9532645 1.5669761 0.29249465 55 10
2.1292486 1.1288069 -0.38170013 8 3
2.9660683 1.5717782 0.41216215 60 11
2.1962514 1.1633461 -0.30516088 78 4
3.2122169 1.7007813 0.57567888 96 12
2.1873243 1.1571513 -0.21649487 70 5
3.2333064 1.7097809 0.71095431 96 13
2.2160301 1.1713477 -0.13136327 68 6
3.8078847 2.0119188 0.99428362 81 14
2.2140419 1.1688141 -0.043700829 64 7
3.7981389 2.0042267 1.1507095 72 15
1.2707471 0.66744041 -0.38460511 8 0
2.9337473 1.5402527 0.057837274 70 8
1.4823922 0.77761292 -0.38646591 7 1
2.9486663 1.5461165 0.1744881 57 9
1.7336727 0.90865582 -0.38047317 6 2
2.9473107 1.5440925 0.29110017 55 10
2.1316295 1.1158113 -0.3810744 9 3
2.9654634 1.5516244 0.41094348 60 11
2.202312 1.1518314 -0.30516088 78 4
3.2648423 1.7068197 0.58350062 26 12
2.2021828 1.1502957 -0.21736643 73 5
2.2203622 1.1588041 -0.13125859 69 6
3.811455 1.9883492 0.99248403 81 14
2.2201316 1.157205 -0.043700829 64 7
3.8102937 1.9852061 1.1512272 76 15
1.2776545 0.66255623 -0.38564041 8 0
2.9328954 1.5202689 0.057662752 72 8
1.465678 0.75908655 -0.3810671 7 1
2.9460797 1.5251465 0.17386007 55 9
1.7331758 0.89685875 -0.37932828 5 2
2.9518154 1.5268096 0.29075155 55 10
2.1409523 1.1064484 -0.38170013 9 3
2.9453275 1.5214998 0.40704364 56 11
2.1924384 1.1320869 -0.30296722 76 4
3.2649581 1.6851712 0.5819363 94 12
2.2010922 1.1350962 -0.21666917 75 5
3.2545238 1.6776283 0.71171761 75 13
2.2086446 1.138015 -0.13021187 69 6
3.8114192 1.963011 0.9897846 81 14
2.2279377 1.1464802 -0.043735731 66 7
3.8137653 1.9616913 1.1491566 76 15
1.2914234 0.66113985 -0.38874623 7 0
2.9319146 1.5003362 0.057488225 54 8
1.4799111 0.75698274 -0.3837665 7 1
2.941576 1.5033373 0.17312735 58 9
1.7500865 0.8940233 -0.38199964 6 2
2.9704151 1.5167704 0.2917974 57 10
2.1430066 1.0938015 -0.3810744 9 3
2.9476864 1.5038658 0.40631241 58 11
2.185956 1.1142809 -0.30126104 78 4
3.2772572 1.6698459 0.58256203 100 12
2.2103596 1.1257501 -0.21701778 75 5
3.2804689 1.6700405 0.71553379 100 13
2.2110121 1.1246247 -0.13000253 69 6
3.8008006 1.9324288 0.98438585 79 14
2.2247989 1.1306587 -0.043561205 64 7
3.8167558 1.9388645 1.147086 75 15
1.2775129 0.64587837 -0.38356987 8 0
2.9501798 1.4908884 0.057697657 56 8
1.4837233 0.74948299 -0.3837665 7 1
2.936666 1.4821295 0.17239466 57 9
1.7405663 0.87808025 -0.37894669 6 2
2.9584854 1.491848 0.28988001 60 10
2.1520433 1.0847186 -0.38170013 12 3
2.9552598 1.4889278 0.40631241 61 11
2.1897953 1.1023097 -0.30101728 76 4
3.2486098 1.6345924 0.57599175 63 12
2.2089097 1.1109669 -0.21632054 73 5
3.2713394 1.6445966 0.71171761 96 13
2.218461 1.1143156 -0.13010719 65 6
3.8070498 1.911417 0.983486 82 14
2.2126205 1.1104138 -0.043212157 64 7
3.8196125 1.9160577 1.1450155 76 15
1.2911363 0.6445812 -0.38667569 8 0
2.9505296 1.4723679 0.057558037 55 8
1.5015794 0.74865997 -0.38736573 7 1
2.9423416 1.4663583 0.17228998 57 9
1.7414739 0.86750817 -0.37818345 6 2
2.9481637 1.4679737 0.2881369 60 10
2.1647675 1.0769559 -0.38295162 12 3
2.9612381 1.4725496 0.40606871 60 11
2.1935689 1.0903281 -0.30077356 78 4
3.2674565 1.623402 0.577869 100 12
2.1986358 1.0914115 -0.21475175 71 5
3.2763877 1.6257011 0.71095431 100 13
2.225862 1.1039598 -0.13021187 69 6
3.8096921 1.8886607 0.98168641 81 14
2.2130282 1.0961514 -0.043107443 68 7
3.8088181 1.8857437 1.1388038 75 15
1.2875618 0.63439715 -0.38460511 8 0
2.9348781 1.4454114 0.057104275 54 8
1.4984844 0.73734647 -0.38556612 7 1
2.9463956 1.4491674 0.17208064 58 9
1.7636108 0.86703944 -0.38199964 6 2
2.9522324 1.4507605 0.28778824 61 10
2.1686039 1.0647357 -0.38263875 16 3
2.9599972 1.4526525 0.40485001 58 11
2.2010295 1.0797026 -0.30101728 76 4
3.2599492 1.5984439 0.57505316 89 12
2.1989524 1.0772556 -0.21422882 73 5
3.2654598 1.5990257 0.70675659 78 13
2.2244356 1.0887786 -0.12979318 71 6
3.8160272 1.8669757 0.98078656 79 14
2.2241266 1.0871842 -0.043212157 68 7
3.8099606 1.861536 1.1362157 80 15
1.2978157 0.63102496 -0.38667569 8 0
2.9388087 1.4282775 0.057034463 57 8
1.4776573 0.71783096 -0.37926748 7 1
2.9503489 1.431977 0.1718713 58 9
1.7645935 0.85608 -0.3812364 6 2
2.9562037 1.4335423 0.28743961 58 10
2.173965 1.0537465 -0.38263875 19 3
2.9532704 1.4302105 0.4029001 58 11
2.2012923 1.0655693 -0.30028611 78 4
3.2255974 1.5607053 0.56754434 55 12
2.2079639 1.0678465 -0.21457744 73 5
3.3144443 1.6015527 0.71553379 44 13
2.215719 1.0701661 -0.12895581 71 6
3.8152199 1.8418871 0.97808713 81 14
2.2314022 1.0767817 -0.043247063 68 7
3.8141143 1.8397099 1.1346627 75 15
1.3045852 0.62589264 -0.38771093 8 0
2.9444439 1.4120053 0.05699956 55 8
1.5024831 0.7201919 -0.38466629 7 1
2.935945 1.4066694 0.17061524 60 9
1.7547387 0.84035349 -0.37818345 6 2
2.9708579 1.4214848 0.2881369 60 10
2.184799 1.0449057 -0.38357735 22 3
2.9479344 1.4092522 0.40119389 60 11
2.1905372 1.0467108 -0.29809242 73 4
3.2016377 1.5284755 0.56191266 66 12
2.2081301 1.0536976 -0.2140545 71 5
3.3225083 1.5847558 0.71553379 28 13
2.2138956 1.0555003 -0.12853712 71 6
3.8069019 1.814169 0.97358811 81 14
2.2279825 1.0607851 -0.04307254 70 7
3.8167162 1.8163944 1.1325922 70 15
1.3147204 0.62258857 -0.3897815 7 0
2.9461303 1.3945184 0.056894846 57 8
1.5062336 0.71231478 -0.38466629 7 1
2.9396582 1.3895714 0.17040588 60 9
1.7591144 0.83115476 -0.37818345 7 2
2.9672053 1.4013243 0.28709102 60 10
2.1991723 1.0376662 -0.3851417 28 3
2.9462957 1.3895631 0.39997521 60 11
2.1923964 1.0335348 -0.29760498 76 4
3.0717392 1.4474156 0.53782177 31 12
2.2082088 1.0395762 -0.21353155 73 5
3.3325369 1.5681728 0.71591538 39 13
2.2230065 1.0455936 -0.12874646 73 6
3.8057675 1.7892361 0.97088867 82 14
2.2117863 1.0389024 -0.04265368 69 7
3.8191795 1.7931007 1.1305215 75 15
1.2969588 0.60588473 -0.38356987 8 0
2.9570155 1.380765 0.056964654 57 8
1.5223045 0.71018612 -0.38781562 7 1
2.9505141 1.3758481 0.17061524 62 9
1.7812369 0.83022642 -0.38199964 6 2
2.9492173 1.3739904 0.28465065 61 10
2.1974118 1.0228035 -0.38389024 28 3
2.9607298 1.3774678 0.40095019 58 11
2.197778 1.0220408 -0.29760498 73 4
3.1061456 1.4438014 0.5425148 61 12
2.2027802 1.0229634 -0.2124857 73 5
3.2837181 1.5242507 0.70370364 33 13
2.2284505 1.0339404 -0.12874646 73 6
3.81862 1.770924 0.97178853 84 14
2.2135665 1.0256265 -0.042583872 69 7
3.8092337 1.7641481 1.1248276 71 15
1.3036221 0.600703 -0.38460511 8 0
2.9460418 1.3568972 0.056615606 59 8
1.5189207 0.69894761 -0.38601601 7 1
2.9467907 1.3553724 0.1699872 62 9
1.7873434 0.82170838 -0.38238126 6 2
2.9527504 1.3568652 0.28430203 61 10
2.1973515 1.008811 -0.38295162 39 3
2.9570765 1.3569784 0.39948773 60 11
2.206708 1.0121742 -0.29809242 76 4
3.1136625 1.427519 0.5425148 51 12
2.2044828 1.0097569 -0.21213706 73 5
3.3612711 1.5389107 0.71858674 1 13
2.2265692 1.0189334 -0.12832777 73 6
3.824295 1.7492855 0.97088867 84 14
2.2225447 1.0156833 -0.04265368 70 7
3.8149033 1.7425748 1.1237923 71 15
1.313785 0.59706533 -0.38667569 8 0
2.9494648 1.3397987 0.056545798 60 8
1.5119127 0.68615204 -0.38331661 7 1
2.9538472 1.3399241 0.1699872 62 9
1.796985 0.81477129 -0.38352609 6 2
2.9616294 1.342208 0.28447634 62 10
2.2008035 0.9964779 -0.38263875 45 3
2.9532907 1.3365656 0.39802533 58 11
2.2029345 0.99651504 -0.29687375 78 4
3.0850949 1.3949206 0.53625745 32 12
2.2061086 0.99655974 -0.21178845 73 5
2.2209511 1.0023314 -0.12769975 70 6
3.8191915 1.7228265 0.96728951 85 14
2.2278318 1.004033 -0.04265368 69 7
3.8134074 1.717815 1.1206865 72 15
1.316893 0.59017861 -0.38667569 7 0
2.9546144 1.3235205 0.056510892 58 8
1.5190419 0.67981881 -0.3842164 7 1
2.940767 1.3154694 0.1688358 63 9
1.7976425 0.80374736 -0.38276285 6 2
2.9758921 1.3299352 0.28517357 62 10
2.202384 0.98332876 -0.38201302 48 3
2.9457459 1.3146129 0.3960754 60 11
2.1972442 0.98011547 -0.29541129 78 4
3.139266 1.3996605 0.54439199 56 12
2.2149358 0.98661703 -0.21213706 73 5
3.5709028 1.5898677 0.75980145 1 13
2.2170451 0.98662937 -0.12717639 68 6
3.8085732 1.6940948 0.96234065 97 14
2.2257485 0.98910677 -0.042514063 71 7
3.8223491 1.6978259 1.1206865 72 15
1.3234992 0.58483672 -0.38771093 7 0
2.9633324 1.3088409 0.056545798 60 8
1.5261465 0.67342907 -0.38511622 7 1
2.9567511 1.3040844 0.16935916 65 9
1.7874546 0.7879889 -0.37970993 6 2
2.9609361 1.3046943 0.28308186 56 10
2.2111182 0.97337615 -0.38263875 52 3
2.956223 1.3007696 0.39656287 60 11
2.1968944 0.96620059 -0.29468012 76 4
3.1103835 1.3673064 0.53813463 42 12
2.2164228 0.97340465 -0.21178845 73 5
3.7589457 1.6500626 0.79796326 9 13
2.2240098 0.97580957 -0.12728105 69 6
3.8084691 1.6702143 0.96009105 100 14
2.2199075 0.97262394 -0.042304631 69 7
3.8223391 1.6739116 1.1180983 76 15
1.3159167 0.57327002 -0.38460511 8 0
2.9664788 1.2917085 0.056475986 63 8
1.5439472 0.67164844 -0.38871542 8 1
2.9525502 1.2838049 0.16873114 65 9
1.798758 0.78174978 -0.3812364 6 2
2.9567621 1.284411 0.28203598 57 10
2.2016873 0.95549482 -0.38013577 59 3
2.9611714 1.2844839 0.39631912 60 11
2.2055662 0.95626235 -0.2951676 76 4
3.1084378 1.3470738 0.53657025 37 12
2.2086909 0.95624357 -0.21056828 78 5
3.7675343 1.6303576 0.79796326 1 13
2.2254221 0.96256632 -0.12707172 70 6
3.8082178 1.6463851 0.95784163 97 14
2.2212977 0.9594022 -0.042234823 70 7
3.809767 1.6446879 1.1118866 77 15
1.3224505 0.56789649 -0.38564041 8 0
2.9529877 1.2674835 0.056092035 61 8
1.5510249 0.66509098 -0.38961524 7 1
2.9629028 1.2699023 0.16894048 67 9
1.8082407 0.77463984 -0.38238126 7 2
2.9561214 1.2657731 0.28133872 57 10
2.1903145 0.93696117 -0.37731999 65 3
2.9642067 1.267399 0.39583167 60 11
2.2123682 0.94548172 -0.29541129 80 4
3.1172647 1.3315567 0.53688318 37 12
2.2100022 0.94310254 -0.21021965 78 5
2.2304323 0.95089942 -0.12707172 71 6
3.8096142 1.6233681 0.95604193 97 14
2.2299712 0.94932353 -0.042304631 68 7
3.8147709 1.623206 1.1108514 77 15
1.328964 0.56247002 -0.38667569 8 0
2.9559007 1.2504456 0.056022223 64 8
1.5292431 0.6466068 -0.38331661 8 1
2.962152 1.2512622 0.16852181 67 9
1.8068459 0.76287013 -0.3812364 6 2
2.9645436 1.2510532 0.28151307 58 10
2.1932089 0.92509496 -0.3770071 61 3
2.9616551 1.2480079 0.39461297 63 11
2.2081411 0.93003178 -0.29419261 76 4
3.3517723 1.4110214 0.57599175 83 12
2.2110748 0.93035889 -0.20987104 78 5
3.6685698 1.5421253 0.77353972 1 13
2.2151256 0.93069851 -0.12592033 68 6
3.8162658 1.6026438 0.9555921 100 14
2.225528 0.9341554 -0.042130109 68 7
3.819375 1.6023816 1.1098161 77 15
1.3354566 0.55699164 -0.38771093 8 0
2.9642532 1.2357204 0.056057129 63 8
1.5398033 0.64158869 -0.38511622 8 1
2.9555404 1.2308792 0.16778909 66 9
1.8161217 0.75597823 -0.38238126 7 2
2.9655337 1.2332196 0.28099012 58 10
2.199847 0.91435653 -0.37731999 63 3
2.9587684 1.2291933 0.39339426 63 11
2.1999867 0.91351545 -0.29248646 82 4
3.7915485 1.572837 0.65014172 91 12
2.2195964 0.92029589 -0.21021965 78 5
3.814168 1.58066 0.80254269 76 13
2.2216532 0.92023885 -0.12602501 69 6
3.7991207 1.5728726 0.94929349 100 14
2.2285411 0.92172521 -0.042095207 71 7
3.8187857 1.5786725 1.1072279 81 15
1.3239651 0.54434806 -0.38356987 7 0
2.9760184 1.2229825 0.056161843 64 8
1.5503521 0.6364783 -0.3869158 8 1
2.9564018 1.2131122 0.16747507 68 9
1.8200548 0.74645931 -0.38238126 7 2
2.9698944 1.2174377 0.28081581 59 10
2.2082601 0.90432364 -0.37794572 71 3
2.9651632 1.2136854 0.39339426 63 11
2.2010658 0.90047914 -0.29199898 82 4
3.8122587 1.5588608 0.65233177 92 12
2.2077851 0.90187913 -0.20865084 80 5
3.833297 1.5651214 0.8048324 87 13
2.2264407 0.90859443 -0.12602501 70 6
3.8073051 1.5529565 0.94929349 100 14
2.2222252 0.90551716 -0.041885775 70 7
3.8234217 1.557196 1.1061926 80 15
1.3303779 0.53885931 -0.38460511 8 0
2.9749668 1.2043813 0.056022223 65 8
1.5645028 0.63273644 -0.38961524 8 1
2.9664166 1.1991125 0.16768442 68 9
1.8130167 0.73250633 -0.38009155 7 2
2.9614484 1.1959034 0.2794213 58 10
2.2038054 0.88905334 -0.37638137 77 3
2.9677951 1.1966596 0.39290681 63 11
2.2020679 0.8874588 -0.29151151 85 4
3.8057106 1.5329734 0.64982885 92 12
2.19769 0.88435727 -0.20725635 80 5
3.823225 1.5377024 0.80101627 97 13
2.2274618 0.89543301 -0.12581564 71 6
3.8081508 1.5300955 0.94749385 100 14
2.2269366 0.89386785 -0.041885775 70 7
3.8064213 1.5270864 1.0989457 80 15
1.3295929 0.5304535 -0.38356987 8 0
2.962657 1.1813821 0.055673175 65 8
1.5641738 0.62309271 -0.38871542 8 1
2.9763653 1.1850426 0.16789377 67 9
1.8314199 0.7288112 -0.3831445 7 2
2.9602649 1.1774336 0.27872407 59 10
2.1974154 0.87312627 -0.37450415 82 3
2.9777107 1.1825672 0.39339426 66 11
2.2140646 0.87884581 -0.29248646 82 4
3.8155208 1.5137556 0.65014172 95 12
2.2004385 0.87210369 -0.20708205 87 5
3.8056695 1.5075415 0.79567355 91 13
2.2284055 0.8822881 -0.12560631 70 6
3.8215463 1.5122857 0.9488436 100 14
2.2315862 0.88219613 -0.041885775 69 7
3.8107717 1.5057148 1.0979104 83 15
1.3431402 0.52772373 -0.38667569 8 0
2.9688022 1.165853 0.055673175 77 8
1.5456452 0.60635453 -0.38331661 8 1
2.9713731 1.1650672 0.16726573 73 9
1.8425227 0.72207618 -0.38467094 7 2
2.9645336 1.1611919 0.27854973 63 10
2.2019572 0.86160725 -0.37450415 85 3
2.9635251 1.1590075 0.39071316 72 11
2.2075422 0.86290544 -0.291024 85 4
3.8141959 1.4901602 0.64857739 92 12
2.195694 0.85694909 -0.20621049 80 5
3.806196 1.4847383 0.79414707 91 13
2.2218292 0.86625576 -0.12497827 70 6
3.8167014 1.4873036 0.94569421 100 14
2.2399011 0.87195098 -0.041955583 67 7
3.8168027 1.4850417 1.0973928 85 15
1.353092 0.52347177 -0.38874623 7 0
2.9618099 1.1452452 0.055428844 47 8
1.5651596 0.60457253 -0.38736573 10 1
2.9569368 1.1415815 0.16611435 31 9
1.842615 0.71100599 -0.38390771 7 2
2.987304 1.1521058 0.28011855 23 10
2.2027516 0.84864646 -0.37387842 85 3
2.9658482 1.1420476 0.39022568 32 11
2.1972091 0.84563166 -0.28907412 85 4
3.818258 1.4687515 0.6479516 97 12
2.20945 0.84901375 -0.20708205 87 5
3.8084192 1.4626784 0.79300219 94 13
2.2226055 0.85317862 -0.12476893 71 6
3.7989647 1.4575258 0.93939561 100 14
2.2276309 0.85376984 -0.041641444 66 7
3.8173103 1.462272 1.0953223 81 15
1.3666463 0.52050579 -0.39185205 7 0
2.9976685 1.1411023 0.055987321 21 8
1.5774108 0.59983289 -0.38961524 12 1
3.0095484 1.1438208 0.16873114 17 9
1.838971 0.6985603 -0.38238126 7 2
3.02496 1.1484716 0.28308186 14 10
2.2145524 0.83990401 -0.37512988 84 3
3.016336 1.1433909 0.3960754 17 11
2.1978943 0.83270746 -0.28858662 85 4
3.7926433 1.4361489 0.64232004 68 12
2.2082748 0.83531845 -0.20655911 85 5
3.814189 1.4420245 0.7926206 91 13
2.227042 0.84153014 -0.12476893 71 6
3.8028979 1.436237 0.93849587 94 14
2.2339418 0.84279984 -0.041676346 70 7
3.8176835 1.4395374 1.0932516 83 15
1.3512636 0.50656146 -0.38667569 8 0
3.050416 1.1429322 0.05685994 18 8
1.5823551 0.59224826 -0.39006513 20 1
3.0566502 1.1434432 0.17103392 17 9
1.8297311 0.68410885 -0.37970993 6 2
3.0607936 1.1437757 0.28587085 16 10
2.2115176 0.82553345 -0.37387842 85 3
3.055759 1.1400714 0.40046272 13 11
2.202224 0.82118863 -0.28858662 85 4
3.6705403 1.3679805 0.62041914 63 12
2.1958132 0.81748885 -0.2049903 87 5
3.8124869 1.4186099 0.79071248 90 13
2.2314181 0.82985646 -0.12476893 73 6
3.8048859 1.4142698 0.93714613 95 14
2.2233272 0.82552266 -0.04139711 73 7
3.8088677 1.4134805 1.088593 85 15
1.3611474 0.50215375 -0.38874623 7 0
3.0788727 1.1352473 0.057278797 18 8
1.5817772 0.58260769 -0.38916534 21 1
3.1000807 1.1412237 0.17312735 15 9
1.8480279 0.67994195 -0.38276285 6 2
3.1153598 1.145612 0.29040295 15 10
2.199122 0.80781239 -0.37106261 89 3
3.0989563 1.1377385 0.40533748 13 11
2.2139482 0.81238163 -0.2895616 87 4
3.1194212 1.1440164 0.52624559 42 12
2.2038052 0.80735087 -0.20533893 89 5
3.7995837 1.3912027 0.7865147 91 13
2.2357323 0.8181622 -0.12476893 71 6
3.8158991 1.3956662 0.93804586 100 14
2.2313752 0.81524324 -0.041466918 73 7
3.8107729 1.3915297 1.0870401 80 15
1.3564941 0.49238372 -0.38667569 7 0
3.1186121 1.1313844 0.057907082 18 8
1.5773778 0.57193679 -0.38736573 20 1
3.1454496 1.1392573 0.17532547 15 9
1.8589472 0.67292917 -0.38428935 7 2
3.1700268 1.1469092 0.29493502 15 10
2.2013247 0.79599917 -0.37074974 87 3
3.1571474 1.1403805 0.41216215 12 11
2.2144372 0.79942989 -0.28907412 89 4
2.2041144 0.79483497 -0.2049903 87 5
3.8049691 1.3706232 0.78613311 94 13
2.2174351 0.79832685 -0.12351287 74 6
3.8121529 1.3717078 0.93534642 95 14
2.2392366 0.80529189 -0.041536726 70 7
3.8141308 1.3709182 1.0860047 80 15
1.3736085 0.4904713 -0.39081678 7 0
3.1696937 1.1311716 0.058744799 20 8
1.5766796 0.562361 -0.38646591 20 1
3.1812768 1.1340519 0.17700022 13 9
1.8678771 0.66548884 -0.38543418 6 2
3.224793 1.1476619 0.29946712 15 10
2.2036009 0.78380078 -0.37043685 89 3
3.215251 1.1430035 0.41898686 11 11
2.2034912 0.78289431 -0.28712422 91 4
3.8237495 1.3570668 0.6426329 89 12
2.2120023 0.78461415 -0.20533893 92 5
3.815558 1.3526601 0.78689629 94 13
2.2214477 0.78709286 -0.12351287 74 6
3.8061886 1.3478411 0.93219715 94 14
2.2358813 0.79088968 -0.04139711 72 7
3.8212574 1.3509263 1.0860047 83 15
1.3687829 0.48095137 -0.38874623 7 0
3.2206602 1.1310152 0.059582517 18 8
1.5814412 0.55474335 -0.3869158 20 1
3.2305207 1.1325784 0.17940767 12 9
1.8602194 0.65180409 -0.3831445 6 2
3.2606463 1.1418638 0.30225611 15 10
2.2039456 0.77094734 -0.36981112 89 3
3.2624164 1.1405666 0.42434907 13 11
2.2000637 0.76872766 -0.28614923 91 4
3.8193798 1.3337873 0.64075565 92 12
2.2123172 0.77170968 -0.2049903 89 5
3.8077576 1.3274925 0.7838434 90 13
2.2293103 0.7767657 -0.12372221 73 6
3.802151 1.3240496 0.92949772 100 14
2.2248826 0.77391452 -0.041117873 75 7
3.8173296 1.3270948 1.0828989 81 15
1.3712826 0.473777 -0.38874623 7 0
3.2813528 1.1330655 0.060594756 15 8
1.5953779 0.55026686 -0.38961524 18 1
3.296829 1.1364778 0.18275717 11 9
1.8561816 0.6394977 -0.38161799 6 2
3.3174446 1.1422873 0.30696252 13 10
2.2135558 0.76132506 -0.37074974 85 3
3.3321719 1.1454072 0.4326362 28 11
2.2078133 0.75848836 -0.28663671 91 4
2.2012508 0.75494432 -0.20359582 89 5
3.8146558 1.3075383 0.7838434 94 13
2.2371261 0.7663756 -0.12393155 74 6
3.8108757 1.3047541 0.92994767 95 14
2.2345805 0.76419646 -0.041222587 77 7
3.8059461 1.3008405 1.0777225 81 15
1.362769 0.46286318 -0.38564041 8 0
3.3156443 1.12551 0.061118327 12 8
1.5926062 0.54030716 -0.38826552 16 1
3.3594828 1.1384299 0.18589734 13 9
1.8706619 0.63354838 -0.38390771 6 2
3.4026427 1.1517316 0.31428361 15 10
2.1949265 0.74251509 -0.3669953 87 3
3.407506 1.1520505 0.44165453 17 11
2.2155161 0.74818784 -0.28712422 91 4
2.9029284 0.97976357 0.48525977 45 12
2.1956041 0.74060982 -0.20272426 83 5
3.7989006 1.2806871 0.77926397 33 13
2.2297511 0.75082803 -0.12330353 75 6
3.8158076 1.2841623 0.92949772 94 14
2.2308383 0.7503261 -0.041082963 77 7
3.8069875 1.2797148 1.0761696 77 15
1.3687589 0.45718348 -0.38667569 8 0
3.3763053 1.1270772 0.062130567 12 8
1.5860775 0.52915627 -0.38601601 13 1
3.4201517 1.1397223 0.18893282 28 9
1.8775697 0.62531322 -0.38467094 6 2
3.423552 1.1395279 0.31567809 26 10
2.200531 0.73201925 -0.36730817 91 3
3.4490838 1.1466889 0.44628558 20 11
2.2155068 0.73571289 -0.28663671 87 4
2.935972 0.97439206 0.4899528 60 12
2.2049978 0.73136866 -0.20324717 87 5
3.3580861 1.1131825 0.68767565 53 13
2.2183547 0.73451 -0.12246615 76 6
3.8167086 1.2629951 0.92814809 95 14
2.2422016 0.74153751 -0.041222587 79 7
3.8115816 1.2598226 1.075652 83 15
1.3894098 0.45627695 -0.39185205 7 0
3.4598665 1.13554 0.063561663 12 8
1.5906785 0.52145034 -0.38646591 15 1
3.482816 1.1410527 0.19207297 12 9
1.8881739 0.61824542 -0.38619745 6 2
3.5447845 1.1599833 0.32631108 12 10
2.2080889 0.72171545 -0.3679339 91 3
3.4946671 1.1415577 0.45140409 15 11
2.2041054 0.71956205 -0.28468683 91 4
2.9126968 0.95032948 0.48525977 57 12
2.210691 0.72043139 -0.2034215 85 5
3.3769362 1.0998398 0.69034702 68 13
2.2258422 0.72450852 -0.12267549 78 6
3.8082263 1.2388394 0.9245488 97 14
2.24225 0.72855103 -0.041152775 77 7
3.8199632 1.2404461 1.0761696 76 15
1.3770711 0.44425121 -0.38771093 8 0
3.5323772 1.138885 0.064783335 12 8
1.587822 0.51132298 -0.38511622 18 1
3.5590882 1.1454402 0.19594584 11 9
1.8745644 0.60293996 -0.38276285 7 2
3.6077132 1.1596998 0.33154044 13 10
2.2118375 0.71014374 -0.3679339 89 3
3.5629716 1.1432599 0.45944747 12 11
2.1965013 0.70437419 -0.28322437 94 4
2.9007027 0.92963928 0.48244393 55 12
2.2125354 0.70823866 -0.20324717 92 5
3.3845181 1.0827425 0.6907286 66 13
2.2219956 0.71041197 -0.12225681 80 6
3.8053796 1.2159164 0.92229939 100 14
2.2231731 0.70950568 -0.040733919 81 7
3.8190436 1.2180791 1.0740991 77 15
1.3683286 0.43353435 -0.38460511 8 0
3.6183615 1.1457267 0.066249333 12 8
1.5941933 0.50417793 -0.38601601 18 1
3.6640661 1.1580883 0.20138879 11 9
1.8833122 0.5948903 -0.38390771 6 2
3.6707346 1.1587889 0.33676979 13 10
2.2117577 0.69736445 -0.36730817 89 3
3.6541078 1.1514367 0.47041571 10 11
2.2077329 0.69524843 -0.28419933 91 4
2.901762 0.91325206 0.4818182 55 12
2.2010081 0.69186419 -0.20185271 89 5
2.2352128 0.70175892 -0.12278017 87 6
3.8098345 1.1953908 0.92184937 97 14
2.2192252 0.69546324 -0.040594298 83 7
3.8143079 1.1946011 1.0709932 77 15
1.3779587 0.42865837 -0.38667569 8 0
3.7369735 1.1617925 0.068308719 19 8
1.5968118 0.49582282 -0.38601601 13 1
3.771178 1.1702614 0.20693639 28 9
1.8939015 0.58734792 -0.38543418 6 2
3.7795188 1.1714016 0.34618258 36 10
2.2040565 0.68227023 -0.36543098 93 3
3.7492189 1.1598595 0.48187143 8 11
2.2189293 0.68602437 -0.28517428 87 4
2.9329264 0.90621096 0.48619837 29 12
2.2046006 0.68032992 -0.20185271 87 5
3.2812309 1.011948 0.66744989 1 13
2.2331305 0.68828058 -0.12246615 80 6
3.8253534 1.1782939 0.92409897 100 14
2.2304811 0.68618548 -0.040733919 85 7
3.8094318 1.1712062 1.0678874 76 15
1.3801841 0.42143795 -0.38667569 8 0
3.8022966 1.1603024 0.069390766 77 8
1.5919294 0.48518318 -0.3842164 13 1
3.8173766 1.1627197 0.2091345 78 9
1.904464 0.57970911 -0.38696066 6 2
3.8275352 1.1643542 0.35001746 100 10
2.2038186 0.66957051 -0.36480519 93 3
3.8160229 1.1586697 0.48967105 38 11
2.2110932 0.67093891 -0.28371185 85 4
3.1758182 0.96307027 0.52561986 66 12
2.211946 0.6699332 -0.20220132 92 5
3.2564201 0.98565149 0.66134399 1 13
2.2252333 0.67310959 -0.12183812 83 6
3.8202779 1.1548662 0.92139953 100 14
2.2378721 0.67565405 -0.040803727 83 7
3.8118126 1.1501293 1.0668522 77 15
1.3971764 0.41864133 -0.39081678 7 0
3.8198135 1.1438209 0.069600195 99 8
1.596315 0.47739935 -0.38466629 11 1
3.8176708 1.1410016 0.20882049 97 9
1.8961861 0.5663588 -0.38467094 6 2
3.8335793 1.1442968 0.35001746 100 10
2.207294 0.65802294 -0.36480519 89 3
3.8201354 1.1381059 0.48942733 48 11
2.2031605 0.65595454 -0.28224945 89 4
3.1599901 0.94023275 0.52217829 51 12
2.219243 0.65947813 -0.20254995 99 5
3.257772 0.96747065 0.66058075 1 13
2.2344716 0.66315359 -0.12215213 94 6
3.811326 1.1304158 0.91780037 100 14
2.2337098 0.66165531 -0.040664107 83 7
3.8251913 1.1323496 1.0689226 76 15
1.403056 0.41241005 -0.39185205 9 0
3.8161578 1.1209844 0.069425672 92 8
1.6061902 0.47150972 -0.38646591 10 1
3.8025107 1.1148134 0.20766909 88 9
1.8991255 0.55642331 -0.38467094 6 2
3.8280454 1.1208507 0.34897158 100 10
2.2181799 0.64906108 -0.36605671 89 3
3.8203254 1.1164188 0.48869613 56 11
2.2065651 0.64440846 -0.28224945 94 4
3.1478031 0.91869438 0.51936251 22 12
2.2149017 0.64600521 -0.20185271 92 5
3.1911659 0.92953706 0.6460793 1 13
2.2340777 0.65032917 -0.1219428 94 6
3.8003526 1.1055429 0.91375118 101 14
2.2255087 0.64699227 -0.040454678 85 7
3.8234534 1.1108177 1.0668522 77 15
1.3792083 0.39756665 -0.38460511 8 0
3.8104451 1.0976678 0.069216244 94 8
1.6254913 0.46794501 -0.39051503 8 1
3.8119433 1.0966585 0.20787844 88 9
1.9094648 0.54897344 -0.38619745 6 2
3.8185415 1.0963925 0.3475771 91 10
2.2101552 0.6341697 -0.36417946 93 3
3.8221107 1.0959733 0.48820862 50 11
2.2136149 0.6343261 -0.2827369 91 4
3.1677635 0.90654743 0.52186543 28 12
2.2029293 0.63001621 -0.20045821 87 5
2.9126792 0.83244783 0.58883661 25 13
2.2450225 0.64120686 -0.12236147 91 6
3.8096473 1.0873624 0.91465092 42 14
2.2211735 0.63313764 -0.040315062 85 7
3.8162124 1.0870758 1.0632287 80 15
1.3886386 0.39268392 -0.38667569 10 0
3.8063304 1.0756477 0.069041722 97 8
1.6166661 0.45625228 -0.38781562 7 1
3.8022552 1.0723466 0.20704105 85 9
1.9142025 0.53950113 -0.38657904 5 2
3.816371 1.0748898 0.34687987 91 10
2.2020361 0.61938024 -0.36230227 91 3
3.8220639 1.0743337 0.48747739 52 11
2.2130837 0.62165302 -0.28224945 91 4
3.1913302 0.89584059 0.52499413 41 12
2.2100346 0.61954838 -0.20080683 99 5
2.8886409 0.80924118 0.58311236 27 13
2.2368095 0.62621218 -0.12173345 94 6
3.8190417 1.0684518 0.91555077 39 14
2.2283101 0.62257487 -0.04038487 85 7
3.814409 1.0650026 1.0611582 81 15
1.4018458 0.38850307 -0.3897815 7 0
3.8003473 1.052502 0.068832293 97 8
1.6303022 0.45089778 -0.39051503 7 1
3.8116677 1.0534887 0.20725042 85 9
1.930248 0.53312951 -0.3892504 6 2
3.8219471 1.0548921 0.34687987 93 10
2.1995358 0.6062668 -0.36136368 87 3
3.8084989 1.0490346 0.48504004 45 11
2.2163081 0.61005759 -0.28224945 87 4
3.1902633 0.87754637 0.52405554 38 12
2.2170906 0.60902435 -0.20115545 99 5
2.8852654 0.79202586 0.58158582 48 13
2.224649 0.61026448 -0.12089607 89 6
3.8170657 1.0463811 0.91375118 55 14
2.2353969 0.61195451 -0.040454678 83 7
3.8236592 1.0460365 1.0621934 80 15
1.4038608 0.38115752 -0.3897815 7 0
3.8115959 1.0341593 0.068937011 94 8
1.6062319 0.43550074 -0.3842164 7 1
3.7978532 1.0282961 0.2062037 83 9
1.9330131 0.52301526 -0.3892504 6 2
3.8312643 1.0359074 0.34722847 91 10
2.2063904 0.59615642 -0.36198941 85 3
3.8062727 1.0270118 0.48406506 45 11
2.204139 0.59431005 -0.28029951 91 4
3.1738331 0.855178 0.52061397 31 12
2.2162971 0.59675854 -0.20080683 89 5
2.8836851 0.77537948 0.580441 85 13
2.2258844 0.59809029 -0.1207914 85 6
3.8130825 1.0238515 0.91150165 58 14
2.2384655 0.60063314 -0.040454678 83 7
3.8251731 1.0256686 1.0611582 81 15
1.4095713 0.37479505 -0.39081678 7 0
3.8188915 1.0147008 0.06897191 97 8
1.6310921 0.4330855 -0.38961524 7 1
3.8030088 1.0090616 0.2062037 85 9
1.9128634 0.50718635 -0.38467094 6 2
3.8289313 1.0137941 0.34653121 90 10
2.2152107 0.58611113 -0.362928 89 3
3.8152606 1.0087476 0.48455253 50 11
2.2109571 0.5841611 -0.28078699 94 4
2.9929957 0.78966606 0.49026567 70 12
2.2136114 0.58362275 -0.20028389 95 5
2.8913698 0.76177388 0.58120424 100 13
2.2346776 0.58834165 -0.12110542 94 6
3.8050227 1.0010709 0.90835232 48 14
2.2299755 0.58585531 -0.040245246 81 7
3.8230164 1.003665 1.0590875 81 15
1.3927556 0.36278594 -0.38564041 8 0
3.8143024 0.9928394 0.068797387 94 8
1.6371093 0.42552021 -0.39051503 7 1
3.8024411 0.98762655 0.20588967 92 9
1.9306949 0.50111014 -0.38772389 6 2
3.8147278 0.98939854 0.3447881 96 10
2.2105997 0.57252389 -0.36167651 93 3
3.8243332 0.98975319 0.48504004 47 11
2.2139857 0.57257521 -0.28078699 94 4
3.7944844 0.98061508 0.62073201 39 12
2.2069912 0.56953371 -0.19941233 99 5
2.8896153 0.7451545 0.58005941 91 13
2.2377274 0.57663357 -0.12110542 94 6
3.819649 0.98356158 0.91060191 71 14
2.2252655 0.57217997 -0.04010563 85 7
3.8151221 0.98026633 1.055464 85 15
1.3946359 0.35548899 -0.38564041 8 0
3.7981322 0.967426 0.068413429 90 8
1.6279831 0.41406095 -0.38781562 7 1
3.8056242 0.96721286 0.20578501 88 9
1.9256811 0.48906085 -0.38619745 6 2
3.8159933 0.96843231 0.34443948 94 10
2.2059078 0.55900013 -0.36042506 93 3
3.8217654 0.96776754 0.48406506 47 11
2.2227266 0.56243664 -0.28151822 100 4
3.8091424 0.96315449 0.62229639 31 12
2.2080112 0.55748308 -0.19923802 72 5
2.895381 0.73049414 0.580441 56 13
2.2407165 0.56490761 -0.12110542 91 6
3.8209665 0.96259761 0.90970206 61 14
2.2359881 0.56247061 -0.040245246 87 7
3.8145816 0.9588654 1.0539112 83 15
1.4077252 0.35098511 -0.38874623 7 0
3.8031452 0.94752705 0.068413429 90 8
1.6300581 0.40581545 -0.38781562 7 1
3.8067596 0.94631106 0.20557566 83 9
1.9434581 0.48275831 -0.3892504 6 2
3.8132777 0.94651628 0.34374225 97 10
2.2048745 0.54687649 -0.35979933 93 3
3.8210003 0.94630957 0.48333386 51 11
2.212152 0.54745227 -0.27981204 89 4
3.8141329 0.94319791 0.62229639 28 12
2.2301466 0.55107939 -0.20098113 89 5
2.9086964 0.71767646 0.58234906 45 13
2.2203732 0.54743099 -0.11984935 94 6
3.8146014 0.93978041 0.90700263 63 14
2.238806 0.55114788 -0.040245246 85 7
3.819386 0.93954521 1.0539112 83 15
1.4095435 0.34360993 -0.38874623 7 0
3.8099976 0.92807359 0.068448335 92 8
1.6397347 0.39911744 -0.38961524 7 1
3.7959752 0.92325449 0.20473827 83 9
1.9344304 0.47013324 -0.38696066 7 2
3.8297982 0.92935735 0.3447881 94 10
2.2115469 0.53625602 -0.36042506 91 3
3.8122363 0.92368495 0.48162767 47 11
2.2033188 0.53344661 -0.27834961 94 4
3.8305404 0.92599684 0.62417358 36 12
2.2175078 0.53565305 -0.19958666 83 5
2.9332848 0.70801169 0.5865469 21 13
2.2269986 0.53712189 -0.1200587 91 6
3.7965753 0.91498327 0.90160388 100 14
2.2377732 0.53848094 -0.040175438 85 7
3.8242528 0.9195354 1.0539112 83 15
1.4150229 0.33736703 -0.3897815 7 0
3.8127007 0.90831351 0.068413429 97 8
1.637942 0.38991082 -0.38871542 7 1
3.7988141 0.90290374 0.20463361 82 9
1.9311349 0.45863694 -0.3858158 7 2
3.8305762 0.90904045 0.34443948 93 10
2.2199991 0.5264225 -0.36136368 87 3
3.8131568 0.90279806 0.4811402 47 11
2.2118769 0.52327347 -0.27908084 97 4
3.7967303 0.89750946 0.61791623 66 12
2.2182517 0.52396405 -0.19941233 89 5
3.1108375 0.7336517 0.62127411 51 13
2.2336683 0.52637094 -0.12026804 87 6
3.8070047 0.89643139 0.90295357 100 14
2.230737 0.52485842 -0.040000916 95 7
3.826978 0.89972466 1.0533936 85 15
1.4092438 0.32820109 -0.38771093 8 0
3.8115613 0.88697946 0.068308719 92 8
1.636165 0.38044631 -0.38781562 7 1
3.8013899 0.88321394 0.20452894 83 9
1.9372565 0.44974434 -0.38657904 7 2
3.8236377 0.88627315 0.34339362 97 10
2.2169518 0.51345396 -0.36042506 91 3
3.8138096 0.88259071 0.48065275 45 11
2.2106287 0.51117772 -0.27859333 100 4
3.8321731 0.88472676 0.62292212 90 12
2.2131991 0.51055151 -0.19871511 87 5
3.8300068 0.8828187 0.76399928 94 13
2.2343574 0.51460993 -0.12016336 85 6
3.8114929 0.87715214 0.90295357 100 14
2.2315059 0.51272303 -0.039966013 89 7
3.8146904 0.87578332 1.0487348 83 15
1.4072313 0.31971538 -0.38667569 8 0
3.8046043 0.8636874 0.06809929 92 8
1.653403 0.37503743 -0.39141485 8 1
3.8160031 0.86417437 0.2050523 81 9
1.9493122 0.44108477 -0.38848713 7 2
3.8206034 0.86381429 0.34269637 97 10
2.2081363 0.49884063 -0.35854784 96 3
3.8148065 0.86040449 0.48016527 45 11
2.2153859 0.49925944 -0.27883708 91 4
3.7810178 0.85139507 0.61384892 73 12
2.210098 0.49725613 -0.19819216 83 5
3.8061452 0.85495955 0.75827497 89 13
2.2391458 0.50256014 -0.12026804 96 6
3.8144307 0.85542417 0.90250361 91 14
2.2342474 0.50064164 -0.039966013 87 7
3.817488 0.85470855 1.0482172 85 15
1.4126582 0.31317881 -0.38771093 8 0
3.8032167 0.84245849 0.067994572 90 8
1.6477333 0.36469036 -0.38961524 8 1
3.8164282 0.84398574 0.20484295 78 9
1.9515196 0.43121344 -0.38848713 6 2
3.819237 0.84250975 0.34217343 100 10
2.2030017 0.48557097 -0.35729638 93 3
3.8171737 0.84065747 0.47992152 46 11
2.2217617 0.48889282 -0.27932456 94 4
3.8201523 0.83921653 0.61948055 88 12
2.2165632 0.48653233 -0.19854078 85 5
3.8142591 0.83652449 0.75903821 96 13
2.2338567 0.48951098 -0.11984935 96 6
3.7749279 0.82651961 0.89215589 71 14
2.2407451 0.4897911 -0.040035821 87 7
3.8162487 0.83347321 1.0466642 86 15
1.4142251 0.30602515 -0.38771093 8 0
3.8113413 0.8240425 0.068064384 90 8
1.6534301 0.35687995 -0.39051503 7 1
3.801271 0.8197822 0.20379624 78 9
1.9556701 0.42140171 -0.38886875 7 2
3.8292961 0.82442552 0.34269637 97 10
2.2093768 0.47485933 -0.35792211 93 3
3.8059964 0.81732446 0.47797161 48 11
2.2107046 0.47433859 -0.27761838 100 4
3.8243511 0.8198697 0.61948055 88 12
2.2171319 0.47450352 -0.19836646 78 5
3.6093228 0.77179527 0.71744186 28 13
2.2246699 0.47530368 -0.11922132 100 6
3.8211312 0.81569433 0.90205371 100 14
2.2471905 0.47888508 -0.04010563 85 7
3.8243392 0.81428587 1.0476996 83 15
1.4384913 0.30340016 -0.3939226 7 0
3.8136477 0.80366039 0.068029478 92 8
1.651462 0.34741592 -0.38961524 7 1
3.8035574 0.79945439 0.20369156 85 9
1.9444003 0.40833235 -0.38619745 6 2
3.8257604 0.80272883 0.34199914 96 10
2.2156994 0.46409521 -0.35854784 96 3
3.8082805 0.79697973 0.47772786 42 11
2.2131581 0.4627555 -0.27761838 93 4
3.5462809 0.74085772 0.5738017 27 12
2.2312887 0.46532729 -0.19941233 100 5
3.5787187 0.74567908 0.71057272 33 13
2.2388604 0.46609205 -0.11984935 98 6
3.7833762 0.78694278 0.89215589 58 14
2.2261717 0.46223456 -0.039686773 87 7
3.8304422 0.79464048 1.0482172 87 15
1.4249215 0.29275426 -0.3897815 7 0
3.8119266 0.78247619 0.067924768 100 8
1.6570172 0.33983546 -0.39051503 7 1
3.8057339 0.77912873 0.20358689 81 9
1.9465119 0.39814562 -0.38619745 6 2
3.8142941 0.77949607 0.34060463 97 10
2.21802 0.45287427 -0.35854784 96 3
3.8122656 0.77769351 0.47772786 30 11
2.2136056 0.45076576 -0.27737463 91 4
3.8133695 0.77583921 0.6163519 70 12
2.2062807 0.44847217 -0.19697197 92 5
3.5670552 0.72442955 0.70751977 63 13
2.237355 0.45356902 -0.11964 96 6
3.827554 0.77524751 0.90160388 100 14
2.232403 0.45175391 -0.039756581 87 7
3.8041186 0.76911676 1.039935 88 15
1.418808 0.28402135 -0.38771093 8 0
3.8001511 0.76003426 0.067645527 88 8
1.6778256 0.33526322 -0.39501405 6 1
3.8076704 0.75946504 0.20348223 83 9
1.9600543 0.39059106 -0.38848713 6 2
3.8201447 0.76056868 0.34077895 100 10
2.2125344 0.44010022 -0.35729638 96 3
3.7966826 0.75451982 0.47529048 5 11
2.2236476 0.44110063 -0.27834961 100 4
3.8191848 0.75691336 0.61666471 82 12
2.2104766 0.43768719 -0.19714628 95 5
3.8191211 0.75551361 0.7567485 75 13
2.2396219 0.44223967 -0.11964 98 6
3.8161335 0.75284654 0.89800459 91 14
2.2346609 0.44044858 -0.039756581 89 7
3.8117537 0.75060034 1.0409703 83 15
1.4202274 0.27683625 -0.38771093 8 0
3.8078749 0.74155599 0.067715339 88 8
1.6566029 0.32201126 -0.38961524 7 1
3.8095045 0.73980337 0.20337754 82 9
1.9658608 0.38141295 -0.3892504 6 2
3.8180778 0.74008548 0.34025604 100 10
2.2070503 0.4270092 -0.35604486 100 3
3.7538052 0.72558802 0.46944076 3 11
2.2161064 0.42795774 -0.27713093 98 4
3.8268461 0.73832089 0.61729044 90 12
2.2166514 0.42685932 -0.19749491 95 5
3.8095293 0.73291129 0.7540772 93 13
2.2300634 0.42863595 -0.11901198 98 6
3.8141541 0.73241866 0.8966549 95 14
2.2487199 0.43100116 -0.039966013 87 7
3.8137341 0.73026788 1.0404526 76 15
1.4368422 0.27227336 -0.39185205 7 0
3.8136704 0.72197926 0.067750245 92 8
1.660181 0.31369448 -0.39006513 7 1
3.8035131 0.71799386 0.20285419 83 9
1.9639723 0.37038654 -0.38848713 6 2
3.7846999 0.71307439 0.3369441 33 10
2.2131391 0.41617715 -0.35667065 93 3
3.8297386 0.71948403 0.47845906 48 11
2.2046592 0.41378585 -0.27542472 100 4
3.8306596 0.71827286 0.61729044 96 12
2.2247312 0.41634738 -0.19801784 99 5
3.7669992 0.70429474 0.74491841 53 13
2.2244241 0.41548634 -0.11859328 98 6
3.5688987 0.66596782 0.83816761 28 14
2.2352188 0.41629159 -0.039686773 89 7
3.8118079 0.70923042 1.0388998 71 15
1.4306483 0.26334721 -0.3897815 7 0
3.8154314 0.70164073 0.067715339 90 8
1.6694143 0.30669576 -0.39186475 7 1
3.8032911 0.69734973 0.20264484 85 9
1.9581605 0.35868293 -0.38696066 6 2
3.8138597 0.69790971 0.33921015 70 10
2.2191031 0.40568128 -0.35729638 100 3
3.8256421 0.69799596 0.47748414 78 11
2.2087483 0.40259331 -0.27566847 100 4
3.7916131 0.69041991 0.61040735 67 12
2.22681 0.40508133 -0.19801784 99 5
3.838244 0.69683504 0.75827497 82 13
2.2324648 0.40490258 -0.1189073 100 6
3.4860485 0.63163859 0.81792206 45 14
2.2313941 0.40390393 -0.039582059 95 7
3.8248537 0.69164622 1.0414879 85 15
1.4282041 0.25517368 -0.38874623 7 0
3.8111787 0.68024755 0.067575715 70 8
1.682508 0.30000359 -0.39456415 6 1
3.8087382 0.67844021 0.20274951 74 9
1.9676822 0.35014364 -0.38848713 6 2
3.8076527 0.67619026 0.33833858 79 10
2.2211971 0.39405516 -0.35729638 100 3
3.7353032 0.66199708 0.46578467 45 11
2.210758 0.39140835 -0.27566847 100 4
3.7659974 0.66540343 0.60571432 18 12
2.211242 0.39030012 -0.19644904 95 5
3.7527843 0.66171628 0.74072057 17 13
2.2364523 0.39394507 -0.11901198 98 6
3.5179894 0.61905146 0.82467055 12 14
2.2315085 0.39186975 -0.039547153 94 7
3.7922697 0.66526896 1.0316528 33 15
1.4294775 0.24794143 -0.38874623 7 0
3.2766707 0.56774783 0.058046706 49 8
1.6840559 0.29118964 -0.39456415 6 1
3.2926559 0.5687421 0.17511612 65 9
1.973358 0.34050348 -0.3892504 6 2
3.2907164 0.5672226 0.29214606 62 10
2.211549 0.38041112 -0.35541913 100 3
3.3122189 0.56914341 0.41264963 65 11
2.2225595 0.38150743 -0.27688718 100 4
3.3000991 0.56587511 0.5303129 47 12
2.2152188 0.37905353 -0.19662334 92 5
3.2898173 0.56233913 0.6487506 60 13
2.2404532 0.3825655 -0.11911664 100 6
3.3021898 0.56326616 0.77338171 68 14
2.2414153 0.38152215 -0.039686773 99 7
3.2929087 0.55990899 0.89499629 57 15
1.4383765 0.24173449 -0.39081678 7 0
3.2914312 0.55256784 0.058256131 82 8
1.6644158 0.27882683 -0.38961524 6 1
3.295589 0.55149192 0.17511612 22 9
1.971241 0.3295196 -0.38848713 6 2
3.2995367 0.55097032 0.292669 61 10
2.2135105 0.36882702 -0.35541913 100 3
3.2955716 0.54853475 0.41021225 68 11
2.2264848 0.3701891 -0.27713093 98 4
3.2932734 0.54696935 0.52874857 40 12
2.2230701 0.36842537 -0.19714628 100 5
3.3004642 0.54638815 0.65027708 71 13
2.232573 0.36920074 -0.11859328 100 6
3.3012483 0.5453341 0.77248192 83 14
2.2611396 0.37270868 -0.040000916 100 7
3.3015137 0.54360241 0.89654922 47 15
1.4396224 0.23420036 -0.39081678 7 0
3.2863841 0.53404456 0.058116514 77 8
1.6716236 0.27104443 -0.39096493 7 1
3.3082893 0.53582644 0.1756395 73 9
1.9806917 0.32044762 -0.39001361 7 2
3.292542 0.53209502 0.2917974 70 10
2.2154114 0.35723174 -0.35541913 100 3
3.2964392 0.530954 0.4099685 66 11
2.2146733 0.35631964 -0.27542472 100 4
3.3409503 0.53692865 0.53594452 70 12
2.2249684 0.3567811 -0.19714628 100 5
3.2819557 0.52568507 0.6460793 71 13
2.236448 0.35782012 -0.11869796 100 6
3.279042 0.52404451 0.76663321 86 14
2.2413385 0.35739911 -0.039616965 100 7
3.3062222 0.5266133 0.89706683 61 15
1.4331956 0.22545756 -0.38874623 7 0
3.3464236 0.5258311 0.059128754 63 8
1.6807209 0.2634944 -0.39276454 7 1
3.2834244 0.51417053 0.17417407 26 9
1.9707041 0.3082526 -0.38772389 6 2
3.3090627 0.51700211 0.2930176 63 10
2.2211549 0.34623623 -0.35604486 100 3
3.3168271 0.51643634 0.41216215 37 11
2.2125857 0.34410834 -0.27493724 100 4
3.7067814 0.57582784 0.59413815 46 12
2.2268062 0.34512597 -0.19714628 100 5
3.2982445 0.5105955 0.6487506 57 13
2.2323692 0.34519032 -0.11838394 98 6
2.2372496 0.34474573 -0.039512251 100 7
3.7385421 0.57541728 1.0135354 48 15
1.4267166 0.2167899 -0.38667569 8 0
3.7998993 0.57671708 0.067087047 64 8
1.6897401 0.25615218 -0.39456415 6 1
3.7995205 0.57462466 0.20138879 57 9
1.978115 0.29880831 -0.38886875 7 2
3.2644417 0.49253601 0.28883412 50 10
2.2189724 0.33440045 -0.35541913 98 3
3.3626719 0.50555634 0.4175244 32 11
2.2182832 0.33310887 -0.27542472 100 4
3.7996078 0.56988889 0.6085301 76 12
2.2147317 0.33178514 -0.19592611 100 5
3.3047559 0.4938989 0.64951384 51 13
3.3074791 0.49312568 0.77203202 5 14
2.2350099 0.3328281 -0.039442439 100 7
3.8178401 0.56785715 1.034241 73 15
1.4431236 0.21155815 -0.39081678 6 0
3.796931 0.55594331 0.066982336 78 8
1.6833451 0.24617386 -0.39276454 7 1
3.7984276 0.55480826 0.20117943 68 9
1.979602 0.288793 -0.38886875 7 2
3.2866924 0.47830549 0.29057723 55 10
2.2128737 0.32164052 -0.35416767 100 3
3.3376849 0.48453674 0.41411206 28 11
2.2199407 0.32187653 -0.27542472 100 4
3.7888544 0.54800826 0.60634005 73 12
2.2184105 0.32046884 -0.19610041 100 5
