# .PCD v0.7 - Point Cloud Data file format
VERSION 0.7
FIELDS x y z intensity ring
SIZE 4 4 4 4 2
TYPE F F F F U
COUNT 1 1 1 1 1
WIDTH 1242
HEIGHT 1
VIEWPOINT 0 0 0 1 0 0 0
POINTS 1242
DATA ascii
1.2473767 -0.33586749 0.02254851 7 8
0.76206112 -0.20533453 -0.18221036 9 1
1.3942258 -0.37592995 0.075677805 9 9
0.80750757 -0.21773106 -0.16256927 9 2
1.6215928 -0.43753931 0.14694458 4 10
0.833395 -0.22502325 -0.13672373 8 3
1.8569642 -0.5017429 0.23618281 4 11
0.86041033 -0.23263991 -0.10943868 12 4
2.2252502 -0.60208547 0.36511809 7 12
0.92699915 -0.25081795 -0.084018134 8 5
2.749676 -0.74449438 0.55372775 81 13
1.0294203 -0.2789157 -0.055894807 5 6
2.7384939 -0.74249291 0.65505749 97 14
1.1290044 -0.30632055 -0.020419316 6 7
2.7200973 -0.73852426 0.755234 77 15
0.66721797 -0.1820296 -0.18531445 21 0
1.2616296 -0.34443283 0.022827748 7 8
0.80645621 -0.2203189 -0.19300801 7 1
1.3967582 -0.38184777 0.075887144 10 9
0.79916757 -0.21847758 -0.16104279 10 2
1.6104467 -0.44056836 0.14607303 5 10
0.94692081 -0.25922585 -0.15549587 2 3
1.8686033 -0.51189315 0.23788899 6 11
0.85193515 -0.23354261 -0.10846373 12 4
2.234565 -0.6129849 0.3669953 7 12
0.93764645 -0.25721475 -0.085064009 6 5
2.7546334 -0.75616682 0.55525422 69 13
1.0149589 -0.27880406 -0.055162102 5 6
2.7377644 -0.75256389 0.65550733 83 14
1.120216 -0.30813822 -0.020279696 7 7
2.7063272 -0.74493849 0.75212818 73 15
0.69078386 -0.19105206 -0.19204374 20 0
1.2372926 -0.34243402 0.02240889 7 8
0.77187735 -0.21377039 -0.18490976 9 1
1.3934921 -0.38618764 0.07578247 9 9
0.81353557 -0.22546047 -0.16409574 9 2
1.6204185 -0.44938183 0.1471189 4 10
0.85083824 -0.23611821 -0.13985243 7 3
1.8763686 -0.52106851 0.23910768 4 11
0.86641568 -0.24076693 -0.11041363 11 4
2.2247989 -0.61866432 0.36574382 6 12
0.94058192 -0.26155373 -0.085412621 6 5
2.7519772 -0.76577765 0.55525422 72 13
1.0332201 -0.2877028 -0.056208819 5 6
2.74263 -0.76420826 0.65730697 82 14
1.1249121 -0.31365791 -0.020384412 6 7
2.6999888 -0.75334245 0.75109291 61 15
0.69383305 -0.19450513 -0.19307902 9 0
1.2360897 -0.34675089 0.02240889 9 8
0.77112645 -0.21646343 -0.18490976 9 1
1.399827 -0.39320999 0.076201163 9 9
0.81274366 -0.22829887 -0.16409574 9 2
1.6130859 -0.45341799 0.14659595 5 10
0.8043707 -0.22624989 -0.13234358 10 3
1.8535191 -0.52169889 0.23642655 5 11
0.87321299 -0.2459425 -0.11138859 10 4
2.222626 -0.62642664 0.36574382 7 12
0.92048645 -0.25943062 -0.083669513 4 5
2.7133858 -0.76525396 0.54800349 67 13
1.0168321 -0.2869679 -0.055371448 5 6
2.6986868 -0.76212549 0.64740908 92 14
1.1526755 -0.32573974 -0.020907983 7 7
2.6657405 -0.75382602 0.742293 74 15
0.72288287 -0.20537308 -0.20136122 8 0
1.2464126 -0.35434446 0.022618318 9 8
0.71038628 -0.2020908 -0.1705129 12 1
1.3830783 -0.39371923 0.075363785 9 9
0.78928292 -0.22468422 -0.15951632 10 2
1.619158 -0.46122926 0.1472932 4 10
0.87576491 -0.24963346 -0.1442326 6 3
1.8574135 -0.52979922 0.23715776 4 11
0.84944284 -0.24245107 -0.10846373 8 4
2.2242246 -0.63526613 0.36636955 6 12
0.94639617 -0.2703025 -0.086109869 5 5
2.7106984 -0.77472079 0.54800349 53 13
1.0004621 -0.28612214 -0.054534074 5 6
2.6791484 -0.76671553 0.64336002 37 14
1.1361519 -0.32535717 -0.020628745 7 7
2.6463788 -0.75833714 0.7376343 31 15
0.69988406 -0.20148195 -0.19514956 9 0
1.2490113 -0.35980022 0.022688128 7 8
0.75836152 -0.21860307 -0.18221036 9 1
1.3855336 -0.39965177 0.075573131 13 9
0.78849381 -0.22743797 -0.15951632 10 2
1.6328521 -0.47129858 0.14868769 5 10
0.84831893 -0.24501505 -0.13985243 7 3
1.8402965 -0.53187025 0.23520786 6 11
0.85240525 -0.2465177 -0.1089512 12 4
2.2144034 -0.6408298 0.36511809 7 12
0.92248052 -0.26695815 -0.084018134 8 5
2.6796908 -0.77598691 0.54227924 31 13
1.0109673 -0.29294795 -0.055162102 5 6
2.6465094 -0.76737958 0.63616157 27 14
1.1196454 -0.32486328 -0.020349504 6 7
2.6251631 -0.76218355 0.73245794 25 15
0.69175816 -0.20176013 -0.19307902 9 0
1.2400693 -0.36191693 0.02254851 7 8
0.80248827 -0.23435993 -0.19300801 7 1
1.4033725 -0.40984309 0.076619849 13 9
0.77638853 -0.22688481 -0.15722662 11 2
1.6139863 -0.47196254 0.1471189 5 10
0.82091618 -0.24020822 -0.13547227 9 3
1.8631952 -0.54554242 0.23837645 6 11
0.85153955 -0.24949168 -0.1089512 8 4
2.2160575 -0.64928037 0.36574382 6 12
0.90624779 -0.26569232 -0.082623646 9 5
2.6411722 -0.77483547 0.53502846 32 13
1.0233533 -0.30041307 -0.055894807 6 6
2.6213777 -0.77002221 0.63076276 28 14
1.1243179 -0.33026519 -0.02045422 6 7
2.5725782 -0.75617522 0.71848166 24 15
0.6910497 -0.20417356 -0.19307902 9 0
1.235027 -0.36489394 0.0224787 7 8
0.76806867 -0.22707489 -0.18490976 9 1
1.3942724 -0.41247299 0.076201163 14 9
0.7718268 -0.22847898 -0.15646338 11 2
1.5970463 -0.47306666 0.1457244 5 10
0.82011509 -0.24292918 -0.13547227 9 3
1.8518596 -0.54889739 0.23715776 4 11
0.87354529 -0.25908765 -0.11187606 10 4
2.2213526 -0.65925992 0.3669953 6 12
0.90531486 -0.26885411 -0.082623646 9 5
2.6028299 -0.77297032 0.52777767 31 13
1.0127789 -0.30096036 -0.055371448 5 6
2.5889232 -0.76982397 0.6235643 33 14
1.140408 -0.33932033 -0.020768363 7 7
2.5402987 -0.75633049 0.71019953 28 15
0.69777226 -0.20867816 -0.19514956 19 0
1.2337457 -0.36920279 0.0224787 9 8
0.75607032 -0.22640052 -0.18221036 9 1
1.3966506 -0.41848388 0.076410502 15 9
0.79363263 -0.23779927 -0.16104279 10 2
1.6011941 -0.4800767 0.14624733 5 10
0.81926215 -0.24579039 -0.13547227 9 3
1.8385248 -0.55193365 0.23569533 4 11
0.8764379 -0.26327747 -0.11236355 10 4
2.2190378 -0.66700995 0.3669953 6 12
0.927315 -0.27873716 -0.084715381 3 5
2.5681551 -0.77243817 0.52129018 26 13
1.0270221 -0.30909863 -0.056208819 5 6
2.5526328 -0.76874125 0.61546606 34 14
1.1238995 -0.33868325 -0.020489125 7 7
2.5117488 -0.75738502 0.70295256 29 15
0.69703954 -0.21111256 -0.19514956 9 0
1.2362767 -0.37466702 0.02254851 9 8
0.75527543 -0.22903831 -0.18221036 9 1
1.3894477 -0.42161673 0.07609649 11 9
0.78152573 -0.23714769 -0.15875308 10 2
1.6090407 -0.48855719 0.1471189 5 10
0.86754096 -0.2635791 -0.14360686 6 3
1.8403856 -0.55950272 0.23618281 4 11
0.84512699 -0.25709149 -0.10846373 12 4
2.209137 -0.67245084 0.36574382 6 12
0.9492088 -0.28893465 -0.086807117 4 5
2.5485406 -0.77624977 0.51785564 26 13
1.0106531 -0.30802351 -0.055371448 5 6
2.5145185 -0.76684618 0.60691798 39 14
1.1265357 -0.34377161 -0.020558937 7 7
2.488766 -0.75994211 0.69725859 31 15
0.71107399 -0.21807584 -0.19929068 9 0
1.2426083 -0.38132676 0.022688128 7 8
0.70603609 -0.21680045 -0.1705129 12 1
1.3803308 -0.4241178 0.075677805 9 9
0.77693987 -0.23872106 -0.15798986 10 2
1.618752 -0.49768391 0.14816476 5 10
0.81752622 -0.25150391 -0.13547227 9 3
1.8289351 -0.5630033 0.23496412 3 11
0.84043014 -0.25887123 -0.10797625 12 4
2.2067764 -0.68015796 0.36574382 6 12
0.91773039 -0.28285679 -0.084018134 8 5
2.5176744 -0.77646214 0.51213133 27 13
1.0038464 -0.30978262 -0.055057433 5 6
2.4838965 -0.76699454 0.60016942 43 14
1.1176865 -0.34534058 -0.020419316 6 7
2.4639499 -0.76177752 0.69104689 40 15
0.68816894 -0.21368213 -0.19307902 9 0
1.2412696 -0.38566199 0.022688128 9 8
0.77971041 -0.24240495 -0.18850899 8 1
1.3807491 -0.42952675 0.07578247 8 9
0.77610183 -0.24143162 -0.15798986 10 2
1.5941767 -0.49622551 0.14607303 5 10
0.81664336 -0.25435609 -0.13547227 9 3
1.8534912 -0.57765311 0.23837645 3 11
0.84331161 -0.26298529 -0.10846373 8 4
2.1930745 -0.68432653 0.36386663 7 12
0.93575686 -0.29199338 -0.085761249 5 5
2.4905863 -0.77763909 0.50717038 66 13
1.0161036 -0.31745407 -0.055790137 5 6
2.4719043 -0.77275294 0.59791994 81 14
1.1107488 -0.34744892 -0.0203146 6 7
2.4428396 -0.76460308 0.68587047 69 15
0.68741888 -0.21608299 -0.19307902 9 0
1.2265629 -0.38579252 0.022443794 9 8
0.7788595 -0.24512517 -0.18850899 8 1
1.3887664 -0.43734345 0.076305829 7 9
0.79772544 -0.25121576 -0.16256927 9 2
1.6057369 -0.50597876 0.1472932 6 10
0.84212583 -0.26552126 -0.13985243 7 3
1.8382118 -0.57993877 0.23667029 4 11
0.85753244 -0.27070811 -0.11041363 7 4
2.2095087 -0.69792747 0.3669953 6 12
0.9080838 -0.28701487 -0.083320886 8 5
2.4822409 -0.78455317 0.50602549 70 13
1.0073721 -0.31858996 -0.055371448 5 6
2.4673336 -0.78078884 0.59746999 86 14
1.1285931 -0.35736051 -0.020663649 6 7
2.4291058 -0.76962459 0.68276465 74 15
0.67925906 -0.21625683 -0.19100846 20 0
1.2309251 -0.39189166 0.02254851 7 8
0.70372707 -0.22418202 -0.1705129 12 1
1.4024547 -0.44704106 0.077143207 7 9
0.78931761 -0.25175163 -0.16104279 10 2
1.5981773 -0.51004338 0.14677027 5 10
0.81480229 -0.26019329 -0.13547227 9 3
1.8229392 -0.58212465 0.23496412 3 11
0.86792785 -0.27732494 -0.11187606 7 4
2.2070589 -0.70563585 0.3669953 6 12
0.91466701 -0.29261121 -0.084018134 4 5
2.4756091 -0.79244876 0.50526226 76 13
1.0061977 -0.32228005 -0.055371448 5 6
2.4588881 -0.78804266 0.5961203 85 14
1.1311475 -0.36251852 -0.020733459 5 7
2.4374421 -0.78163856 0.68587047 76 15
0.70056498 -0.22573632 -0.19722012 9 0
1.2370934 -0.39885506 0.022688128 7 8
0.75112081 -0.2423159 -0.18221036 9 1
1.3780762 -0.44457531 0.075887144 7 9
0.76975083 -0.24847437 -0.15722662 11 2
1.6153467 -0.52174276 0.14851339 5 10
0.86651939 -0.28004512 -0.1442326 6 3
1.8396811 -0.59491009 0.2374015 3 11
0.85557342 -0.27683747 -0.11041363 11 4
2.2045825 -0.71333563 0.3669953 6 12
0.94017732 -0.30439401 -0.086458497 5 5
2.4840338 -0.80471551 0.50755197 76 13
1.0012666 -0.32455862 -0.055162102 5 6
2.4598296 -0.79782337 0.59702009 88 14
1.1507987 -0.37325111 -0.021117412 7 7
2.4310236 -0.78894943 0.68483526 78 15
0.69977278 -0.22818041 -0.19722012 9 0
1.2357639 -0.40295526 0.022688128 7 8
0.76883942 -0.25084996 -0.18670937 9 1
1.3594282 -0.44380441 0.074945092 7 9
0.77634358 -0.25359824 -0.15875308 10 2
1.6078342 -0.52552122 0.14799045 5 10
0.86558592 -0.28291708 -0.1442326 6 3
1.8282646 -0.59792215 0.23618281 4 11
0.83955753 -0.27473408 -0.10846373 8 4
2.1870606 -0.71610928 0.36449236 6 12
0.93910903 -0.30767396 -0.086458497 5 5
2.4925456 -0.81661594 0.50984168 83 13
1.0096743 -0.33098793 -0.055685461 5 6
2.4460604 -0.80233186 0.59432071 88 14
1.1152892 -0.36604145 -0.020489125 5 7
2.4411025 -0.80164957 0.68845868 84 15
0.69167352 -0.22807974 -0.19514956 9 0
1.2229559 -0.40350705 0.0224787 7 8
0.77536106 -0.25597587 -0.18850899 8 1
1.3882942 -0.45832816 0.076619849 6 9
0.76804167 -0.25370809 -0.15722662 11 2
1.5909488 -0.52584791 0.14659595 5 10
0.93211007 -0.30826592 -0.15549587 2 3
1.8299356 -0.60554761 0.23667029 4 11
0.84990025 -0.28140679 -0.10992616 7 4
2.1771727 -0.72087419 0.36324087 6 12
0.91160542 -0.30201426 -0.084018134 8 5
2.4915435 -0.82592934 0.51022327 79 13
1.0198871 -0.33828303 -0.056313496 6 6
2.4543419 -0.81454825 0.59702009 88 14
1.119763 -0.37162751 -0.020593841 5 7
2.4255972 -0.80547839 0.68483526 75 15
0.68354297 -0.22804718 -0.19307902 9 0
1.2216111 -0.40756026 0.0224787 7 8
0.79299265 -0.26471615 -0.19300801 7 1
1.386686 -0.46317139 0.076619849 6 9
0.78577155 -0.26261052 -0.16104279 10 2
1.5985513 -0.53455758 0.14746751 5 10
0.93108273 -0.31135523 -0.15549587 2 3
1.8241524 -0.61035275 0.23618281 4 11
0.84896243 -0.28422362 -0.10992616 11 4
2.1896279 -0.73348922 0.36574382 6 12
0.89543289 -0.30012909 -0.082623646 9 5
2.4720376 -0.82857174 0.50678873 77 13
1.0092916 -0.33848792 -0.055790137 5 6
2.4553225 -0.82392269 0.59791994 85 14
1.118459 -0.37553397 -0.020593841 5 7
2.4264333 -0.81517094 0.68587047 75 15
0.67912197 -0.22907771 -0.19204374 10 0
1.2088128 -0.40798512 0.022269269 7 8
0.74775255 -0.25251856 -0.18221036 9 1
1.3737077 -0.46417281 0.075991817 6 9
0.77745664 -0.26270089 -0.15951632 10 2
1.5967697 -0.5398556 0.14746751 5 10
0.81023294 -0.27409109 -0.13547227 9 3
1.8126091 -0.61353427 0.23496412 5 11
0.85924625 -0.29100597 -0.11138859 10 4
2.1926668 -0.74302989 0.36668244 6 12
0.90952855 -0.30821231 -0.084018134 4 5
2.4747083 -0.83908695 0.50793356 74 13
0.98919004 -0.33559227 -0.054743413 5 6
2.4635034 -0.83624667 0.60061932 86 14
1.1171412 -0.37943587 -0.020593841 6 7
2.4308896 -0.82612222 0.68794107 74 15
0.68928832 -0.23518997 -0.19514956 9 0
1.2244133 -0.41801697 0.022583414 7 8
0.7911253 -0.27024579 -0.19300801 7 1
1.3588496 -0.46444345 0.075259112 6 9
0.77653491 -0.26541314 -0.15951632 10 2
1.598646 -0.54671544 0.14781614 5 10
0.8616029 -0.2948246 -0.1442326 6 3
1.8085784 -0.61921477 0.23472038 4 11
0.83944571 -0.28757021 -0.1089512 12 4
2.1919284 -0.75131971 0.3669953 6 12
0.93106413 -0.31913763 -0.086109869 5 5
2.4829066 -0.85154164 0.51022327 72 13
0.99934751 -0.34293273 -0.055371448 5 6
2.4458244 -0.83977813 0.59702009 83 14
1.125266 -0.38658163 -0.020768363 7 7
2.4352987 -0.83711451 0.69001162 73 15
0.69576776 -0.24011551 -0.19722012 9 0
1.2097155 -0.4177196 0.022339081 7 8
0.75702286 -0.2615509 -0.18490976 9 1
1.3666584 -0.47244665 0.07578247 6 9
0.77189261 -0.26683924 -0.15875308 10 2
1.5854303 -0.54838473 0.14677027 5 10
0.92777121 -0.32108822 -0.15549587 2 3
1.8157849 -0.62877196 0.23593907 5 11
0.83843684 -0.29049864 -0.1089512 12 4
2.1818268 -0.75637829 0.36574382 6 12
0.93370944 -0.32369092 -0.086458497 5 5
2.4891932 -0.86342031 0.51213133 76 13
0.98682314 -0.34248987 -0.054743413 5 6
2.4520824 -0.85150683 0.59926957 84 14
1.1050204 -0.38394406 -0.020419316 5 7
2.4433103 -0.84941643 0.69311744 78 15
0.67303801 -0.2349036 -0.19100846 10 0
1.2271289 -0.42853257 0.022688128 9 8
0.78921932 -0.27576229 -0.19300801 7 1
1.3763131 -0.48116913 0.076410502 6 9
0.75983697 -0.26564458 -0.15646338 11 2
1.5929097 -0.55720484 0.14764182 5 10
0.80731827 -0.28256068 -0.13547227 9 3
1.8266938 -0.63969898 0.23764524 4 11
0.83367079 -0.29211071 -0.10846373 12 4
2.1754448 -0.76268256 0.36511809 6 12
0.91001159 -0.31903815 -0.084366761 7 5
2.4880166 -0.8727538 0.51251298 72 13
0.99504435 -0.34923965 -0.055266771 5 6
2.4546113 -0.86199814 0.60061932 83 14
1.0885806 -0.38249567 -0.020140078 5 7
2.4293952 -0.85409552 0.69001162 79 15
0.67221391 -0.23725151 -0.19100846 10 0
1.2180831 -0.43014991 0.02254851 9 8
0.74415398 -0.26293421 -0.18221036 9 1
1.3709437 -0.48439974 0.076201163 6 9
0.77371293 -0.27353027 -0.15951632 10 2
1.5928333 -0.5634262 0.14781614 5 10
0.85846829 -0.30383095 -0.1442326 6 3
1.8281921 -0.6473968 0.23813272 4 11
0.84392494 -0.29884949 -0.10992616 11 4
2.1729038 -0.76989245 0.36511809 6 12
0.91640389 -0.32487568 -0.085064009 6 5
2.4794044 -0.87946433 0.5113681 70 13
1.0032305 -0.35605097 -0.055790137 5 6
2.4682679 -0.87599933 0.60466844 86 14
1.1155722 -0.39614078 -0.020663649 6 7
2.4301903 -0.86344051 0.69104689 73 15
0.68598002 -0.24467129 -0.19514956 9 0
1.20535 -0.43015423 0.022339081 7 8
0.74327791 -0.26540047 -0.18221036 9 1
1.3768536 -0.49162981 0.076619849 6 9
0.78019685 -0.27873656 -0.16104279 10 2
1.5834516 -0.56602257 0.1471189 5 10
0.80537629 -0.28804931 -0.13547227 9 3
1.7998689 -0.64409196 0.23472038 4 11
0.85414344 -0.30565944 -0.11138859 10 4
2.1852169 -0.78242087 0.36762103 6 12
0.93032676 -0.3332884 -0.086458497 5 5
2.4709299 -0.88569409 0.51022327 68 13
0.98324406 -0.3526333 -0.054743413 5 6
2.4653494 -0.88417953 0.60466844 82 14
1.1274279 -0.40456584 -0.020907983 7 7
2.4364047 -0.87475872 0.69363505 74 15
0.69425201 -0.25021988 -0.19773777 18 0
1.2039169 -0.43414897 0.022339081 7 8
0.76072443 -0.27447775 -0.18670937 9 1
1.3788861 -0.49778929 0.076829188 6 9
0.77926826 -0.28132227 -0.16104279 10 2
1.5834398 -0.57194722 0.1472932 5 10
0.85643435 -0.30951777 -0.1442326 6 3
1.8033234 -0.65208209 0.23545158 5 11
0.8232044 -0.29783332 -0.10748877 13 4
2.1806149 -0.78937161 0.36730817 6 12
0.9179759 -0.33230266 -0.085412621 6 5
2.4882841 -0.90123755 0.51442105 70 13
0.99145812 -0.35929435 -0.055266771 3 6
2.4549198 -0.89012271 0.6028688 86 14
1.1053308 -0.40099713 -0.020524029 6 7
2.4297047 -0.88193971 0.69259977 70 15
0.68611383 -0.24999627 -0.19566721 19 0
1.2061516 -0.43971857 0.02240889 9 8
0.75976169 -0.27713147 -0.18670937 9 1
1.3583782 -0.49575207 0.07578247 6 9
0.77828151 -0.28404069 -0.16104279 10 2
1.5814338 -0.57747096 0.1472932 4 10
1.7991719 -0.65769136 0.23520786 4 11
0.84453142 -0.30888748 -0.11041363 11 4
2.1704261 -0.79426312 0.36605671 6 12
0.901842 -0.33002731 -0.084018134 8 5
2.4869668 -0.91059273 0.51480269 72 13
0.99769944 -0.36550108 -0.055685461 5 6
2.444479 -0.89600384 0.60106921 82 14
1.1151888 -0.40898418 -0.020733459 6 7
2.4411201 -0.89573938 0.69674093 72 15
0.68342423 -0.25172204 -0.19514956 9 0
1.2158673 -0.44807497 0.022618318 9 8
0.69296694 -0.25551161 -0.1705129 12 1
1.3641346 -0.50325578 0.076201163 6 9
0.76991767 -0.28403762 -0.15951632 10 2
1.5663244 -0.5781582 0.14607303 5 10
0.80236745 -0.2963272 -0.13547227 9 3
1.8303819 -0.67635256 0.23959514 4 11
0.83227664 -0.30770332 -0.1089512 8 4
2.1583769 -0.79840785 0.36449236 6 12
0.89694726 -0.33179083 -0.083669513 4 5
2.4911377 -0.92199409 0.51632917 72 13
1.0170202 -0.37661082 -0.056836855 5 6
2.45961 -0.91130173 0.60556823 86 14
1.0987544 -0.40731385 -0.02045422 6 7
2.4271109 -0.90022427 0.69363505 69 15
0.66443682 -0.24736588 -0.18997319 10 0
1.2142957 -0.45231643 0.022618318 9 8
1.354884 -0.50522316 0.07578247 6 9
0.76892149 -0.28672341 -0.15951632 10 2
1.5698968 -0.58571142 0.14659595 5 10
0.91976929 -0.34333885 -0.15549587 2 3
1.8242906 -0.68134856 0.23910768 4 11
0.83863544 -0.31338614 -0.10992616 11 4
2.1592774 -0.80732071 0.36511809 6 12
0.89205116 -0.33352426 -0.083320886 4 5
2.4805491 -0.9279328 0.51480269 72 13
1.0026056 -0.37525782 -0.05610415 3 6
2.461889 -0.92193204 0.60691798 83 14
1.0973259 -0.41114673 -0.02045422 6 7
2.4257627 -0.90936899 0.69415271 70 15
0.69245332 -0.26068994 -0.19825539 9 0
1.1976591 -0.451125 0.022339081 7 8
0.78229773 -0.29482576 -0.19300801 7 1
1.3829242 -0.52146047 0.077457219 6 9
0.77521342 -0.29231045 -0.16104279 10 2
1.5602829 -0.58864838 0.1458987 5 10
0.85197324 -0.32159406 -0.1442326 6 3
1.7902108 -0.67610723 0.23496412 5 11
0.84119511 -0.31786111 -0.11041363 7 4
2.1599994 -0.81662655 0.36574382 6 12
0.92809564 -0.35088325 -0.086807117 4 5
2.4808037 -0.9384073 0.51556593 74 13
0.98814785 -0.37398136 -0.055371448 5 6
2.4639609 -0.9330194 0.60826766 84 14
1.1070315 -0.4194167 -0.020663649 5 7
2.4386711 -0.9244166 0.69881141 71 15
0.68070561 -0.25898373 -0.19514956 9 0
1.2035527 -0.45814851 0.0224787 7 8
0.72662997 -0.27674672 -0.17951094 10 1
1.3512341 -0.51490545 0.07578247 6 9
0.77418834 -0.29501462 -0.16104279 10 2
1.5619421 -0.59551072 0.14624733 5 10
0.9172889 -0.34991172 -0.15549587 2 3
1.7952584 -0.68518347 0.23593907 5 11
0.83637148 -0.31937921 -0.10992616 11 4
2.1608262 -0.82557136 0.36636955 6 12
0.91942054 -0.3512764 -0.086109869 2 5
2.4811807 -0.94846326 0.51632917 74 13
0.97191256 -0.37172052 -0.054534074 5 6
2.4552288 -0.93952525 0.60691798 85 14
1.1111633 -0.42542341 -0.020768363 7 7
2.4372334 -0.93361455 0.69932908 70 15
0.67258471 -0.25858521 -0.19307902 19 0
1.2206098 -0.46952617 0.022827748 7 8
0.73657179 -0.28348115 -0.18221036 9 1
1.3457009 -0.51818365 0.075573131 6 9
0.75849694 -0.29207137 -0.15798986 10 2
1.5654314 -0.60310823 0.14677027 5 10
1.7947079 -0.69216031 0.23618281 4 11
0.83525151 -0.32229674 -0.10992616 7 4
2.1542459 -0.83168614 0.36574382 6 12
0.92562348 -0.35735396 -0.086807117 2 5
2.4851806 -0.95994806 0.51785564 74 13
0.98364979 -0.38015074 -0.055266771 5 6
2.4555695 -0.94949543 0.60781777 82 14
1.0854264 -0.41991985 -0.0203146 6 7
2.4339597 -0.94211644 0.69932908 73 15
0.66447502 -0.25813323 -0.19100846 10 0
1.2170997 -0.47305962 0.022792844 9 8
0.80459487 -0.31288981 -0.19930664 6 1
1.3606358 -0.5293957 0.076515175 6 9
0.76113206 -0.296141 -0.15875308 10 2
1.5540332 -0.60495502 0.1458987 4 10
0.86696571 -0.33766723 -0.14736128 5 3
1.7922809 -0.6984207 0.23618281 4 11
0.83782035 -0.3266525 -0.11041363 11 4
2.15501 -0.84063655 0.36636955 6 12
0.90580875 -0.35334221 -0.085064009 6 5
2.4836433 -0.96933097 0.51823723 70 13
0.99906093 -0.39012033 -0.056208819 5 6
2.463131 -0.96231616 0.6105172 83 14
1.1025788 -0.43098632 -0.020663649 5 7
2.427058 -0.94919962 0.69829381 68 15
0.67795622 -0.26609772 -0.19514956 9 0
1.2005503 -0.47145763 0.022513606 9 8
0.77810508 -0.30571961 -0.19300801 7 1
1.3514371 -0.53098333 0.07609649 6 9
0.75643945 -0.29735953 -0.15798986 10 2
1.5630369 -0.6147514 0.14694458 5 10
0.9135744 -0.35949814 -0.15549587 2 3
1.8027616 -0.70976323 0.23788899 5 11
0.83673251 -0.329429 -0.11041363 7 4
2.1558864 -0.84922618 0.3669953 6 12
0.89344805 -0.3521187 -0.084018134 8 5
2.4784184 -0.97727442 0.51785564 74 13
0.98840356 -0.38994047 -0.055685461 5 6
2.4599264 -0.97047883 0.6105172 82 14
1.0899833 -0.43023509 -0.02045422 6 7
2.4256938 -0.95795232 0.69881141 69 15
0.67707008 -0.26834443 -0.19514956 9 0
1.2008392 -0.47617328 0.02254851 9 8
0.72274524 -0.2867389 -0.17951094 10 1
1.3570946 -0.53840804 0.076515175 6 9
0.76274812 -0.30276355 -0.15951632 10 2
1.5720999 -0.62434357 0.14799045 5 10
0.91237724 -0.3625257 -0.15549587 2 3
1.7819512 -0.70840412 0.23545158 5 11
0.83194619 -0.33073527 -0.10992616 7 4
2.1493871 -0.85491049 0.36636955 6 12
0.90338272 -0.35949963 -0.085064009 3 5
2.4733398 -0.98476148 0.517474 67 13
0.97040594 -0.38656384 -0.054743413 5 6
2.4675567 -0.9829579 0.61321658 83 14
1.0941234 -0.4360683 -0.020558937 7 7
2.435065 -0.97099984 0.70243496 70 15
0.67617655 -0.27058822 -0.19514956 9 0
1.2066792 -0.48312593 0.022688128 9 8
0.75797039 -0.30362698 -0.18850899 8 1
1.3440837 -0.53868389 0.075887144 6 9
0.76173997 -0.3052913 -0.15951632 10 2
1.5885135 -0.63696867 0.14973356 5 10
0.84516978 -0.33907086 -0.1442326 6 3
1.7961724 -0.72096437 0.23764524 4 11
0.81236565 -0.32623953 -0.10748877 8 4
2.1500559 -0.86388105 0.3669953 6 12
0.8984881 -0.36100775 -0.084715381 3 5
2.4864547 -0.99954838 0.52090853 72 13
0.97467768 -0.39201555 -0.055057433 5 6
2.4532635 -0.9872005 0.6105172 82 14
1.1000146 -0.44287223 -0.020698555 7 7
2.4334526 -0.98021555 0.70295256 67 15
0.67522788 -0.27294686 -0.19514956 9 0
1.2124008 -0.49033409 0.022827748 7 8
0.68464756 -0.27703264 -0.1705129 12 1
1.3514515 -0.54711968 0.076410502 6 9
0.74975097 -0.3035281 -0.15722662 11 2
1.571507 -0.63652587 0.14833906 5 10
0.79271978 -0.32124561 -0.13547227 9 3
1.7899655 -0.72573805 0.23715776 4 11
0.82961696 -0.33653525 -0.10992616 11 4
2.1397059 -0.86840945 0.36574382 6 12
0.90829921 -0.36863741 -0.085761249 5 5
2.4865887 -1.0096991 0.52167183 68 13
0.98625612 -0.40067759 -0.055790137 5 6
2.4588292 -0.9994269 0.61276668 81 14
1.0725287 -0.43616301 -0.020209888 6 7
2.4371741 -0.99161631 0.70502311 67 15
0.66711694 -0.27238122 -0.19307902 9 0
1.1958722 -0.48851338 0.02254851 7 8
0.79912573 -0.32660538 -0.19930664 6 1
1.3569283 -0.55485755 0.076829188 6 9
0.75232136 -0.3076295 -0.15798986 10 2
1.5508353 -0.63446343 0.14659595 5 10
0.9085958 -0.37190148 -0.15549587 2 3
1.7966065 -0.73574328 0.23837645 5 11
0.82108968 -0.33641863 -0.1089512 8 4
2.140317 -0.87737155 0.36636955 6 12
0.8737613 -0.35835558 -0.082623646 9 5
2.4866817 -1.0198624 0.52243507 74 13
0.9922424 -0.4071506 -0.056208819 5 6
2.4589307 -1.0094839 0.61366647 77 14
1.082098 -0.44446278 -0.020419316 7 7
2.4265501 -0.99718028 0.70295256 67 15
0.68040073 -0.28071883 -0.19722012 9 0
1.1867656 -0.48963416 0.02240889 7 8
0.72953099 -0.30113795 -0.18221036 9 1
1.3512912 -0.55806595 0.076619849 6 9
0.77296233 -0.31938148 -0.16256927 9 2
1.5392932 -0.63633746 0.1457244 5 10
0.81595641 -0.33747977 -0.13985243 7 3
1.788524 -0.73973399 0.23764524 4 11
0.83091581 -0.34383681 -0.11041363 7 4
2.1408918 -0.88634861 0.3669953 6 12
0.87986791 -0.36445326 -0.083320886 8 5
2.4756725 -1.0259633 0.52090853 68 13
0.98336375 -0.40772474 -0.055790137 5 6
2.4642146 -1.022223 0.61591601 74 14
1.1027049 -0.45743188 -0.020838173 7 7
2.4319761 -1.0093471 0.70554072 62 15
0.66158432 -0.27566192 -0.19204374 20 0
1.1923459 -0.4970583 0.02254851 7 8
0.71763086 -0.29930887 -0.17951094 10 1
1.3511783 -0.56354827 0.076724522 6 9
0.78633744 -0.3281261 -0.16562222 8 2
1.5517713 -0.64784741 0.1471189 5 10
0.81477344 -0.34032595 -0.13985243 7 3
1.7931272 -0.74934602 0.23862019 4 11
0.83697587 -0.34994295 -0.11138859 7 4
2.1414299 -0.89534032 0.36762103 6 12
0.89329487 -0.37367332 -0.084715381 7 5
2.4756985 -1.0361148 0.52167183 68 13
0.96903849 -0.40575507 -0.055057433 5 6
2.4696183 -1.0345833 0.61816549 77 14
1.0974127 -0.45973295 -0.020768363 7 7
2.4337828 -1.0200704 0.70709366 65 15
0.68020505 -0.28621131 -0.19773777 18 0
1.1870048 -0.49945849 0.0224787 7 8
0.77051669 -0.32437024 -0.19300801 7 1
1.3455216 -0.56671089 0.076515175 6 9
0.75624031 -0.31867099 -0.15951632 10 2
1.5550083 -0.65558219 0.14764182 5 10
0.83912349 -0.35376948 -0.1442326 6 3
1.7833163 -0.75220209 0.23764524 4 11
0.82483733 -0.3480857 -0.10992616 11 4
2.1455708 -0.90588325 0.36887249 6 12
0.89565575 -0.3783398 -0.085064009 3 5
2.4794827 -1.0473745 0.52319831 72 13
0.97872585 -0.41363132 -0.055685461 2 6
2.4589944 -1.0397315 0.61636591 77 14
1.0921179 -0.46200266 -0.020698555 7 7
2.4408817 -1.0330775 0.71019953 64 15
0.67747402 -0.28771022 -0.19722012 18 0
1.1889349 -0.50516278 0.02254851 7 8
0.72633749 -0.30876091 -0.18221036 9 1
1.3362826 -0.56804425 0.07609649 6 9
0.78408575 -0.33347085 -0.16562222 8 2
1.5638255 -0.66541576 0.14868769 5 10
0.78699255 -0.33503154 -0.13547227 9 3
1.7916378 -0.76308978 0.23910768 4 11
0.81631249 -0.34785005 -0.1089512 8 4
2.1352859 -0.90989578 0.36762103 6 12
0.92372066 -0.39380977 -0.087852985 2 5
2.4866467 -1.0606446 0.52548802 72 13
0.98462403 -0.42018083 -0.05610415 3 6
2.4517653 -1.0467782 0.61546606 77 14
1.0850625 -0.4632661 -0.020593841 5 7
2.4356661 -1.0404072 0.70968187 61 15
0.64805758 -0.27789173 -0.1889379 20 0
1.201956 -0.51540732 0.022827748 7 8
0.76829094 -0.32960743 -0.19300801 7 1
1.3397975 -0.57506853 0.076410502 6 9
0.75405365 -0.32381111 -0.15951632 10 2
1.5523404 -0.66693807 0.14781614 5 10
0.83669603 -0.35947299 -0.1442326 6 3
1.7945685 -0.77137864 0.23983888 5 11
0.82244891 -0.35369205 -0.10992616 7 4
2.1393549 -0.92046648 0.36887249 6 12
0.88939971 -0.38285199 -0.084715381 3 5
2.4903288 -1.0719898 0.52701449 72 13
0.96855021 -0.41712359 -0.055266771 3 6
2.4608085 -1.0603008 0.61861545 74 14
1.0834389 -0.46705088 -0.020593841 6 7
2.4355674 -1.0504332 0.71071708 62 15
0.66840816 -0.28924602 -0.19514956 9 0
1.1854688 -0.51324385 0.02254851 7 8
0.76713568 -0.33228722 -0.19300801 7 1
1.3671033 -0.59244853 0.078085259 6 9
0.77459222 -0.33567762 -0.16409574 9 2
1.5391524 -0.66732681 0.14677027 5 10
0.81006497 -0.35138604 -0.13985243 7 3
1.7936863 -0.77842838 0.24008264 4 11
0.82849276 -0.35972318 -0.11090111 11 4
2.1325049 -0.92635459 0.36824676 6 12
0.89536691 -0.3891308 -0.085412621 6 5
2.4775689 -1.0767634 0.52510637 70 13
0.98174113 -0.42687321 -0.05610415 5 6
2.4624531 -1.0712162 0.61996508 75 14
1.0909697 -0.47481999 -0.020768363 6 7
2.4301145 -1.0581571 0.71019953 65 15
0.6673435 -0.2916939 -0.19514956 9 0
1.1873347 -0.5189805 0.022618318 7 8
0.72311962 -0.31622383 -0.18221036 9 1
1.3558781 -0.59321415 0.0775619 6 9
0.75896871 -0.33221644 -0.16104279 10 2
1.5549467 -0.68095607 0.14851339 5 10
0.78344095 -0.34325442 -0.13547227 9 3
1.7691391 -0.77512521 0.23715776 4 11
0.81814152 -0.35862821 -0.10968242 8 4
2.1328766 -0.93537951 0.36887249 6 12
0.89400321 -0.39225385 -0.085412621 3 5
2.4789989 -1.0882043 0.52625126 72 13
0.97285527 -0.42725611 -0.055685461 5 6
2.4602947 -1.0810182 0.62041503 74 14
1.1076132 -0.48666939 -0.021117412 6 7
2.43348 -1.0697432 0.71227002 65 15
0.68399554 -0.30182058 -0.20032595 9 0
1.1854246 -0.52332884 0.022618318 7 8
0.76473826 -0.3377682 -0.19300801 7 1
1.3317724 -0.58849257 0.076305829 6 9
0.76498741 -0.33803779 -0.16256927 9 2
1.5452712 -0.68315727 0.14781614 5 10
0.80752981 -0.35717368 -0.13985243 7 3
1.7735475 -0.78481728 0.23813272 4 11
0.81863678 -0.36242807 -0.10992616 7 4
2.1330464 -0.94479066 0.36949828 6 12
0.90720201 -0.40182719 -0.086807117 4 5
2.4841597 -1.1008281 0.52815932 70 13
0.97135794 -0.4306494 -0.055685461 3 6
2.456506 -1.0895997 0.62041503 74 14
1.096683 -0.48667017 -0.020942887 5 7
2.4366057 -1.0817908 0.71434063 64 15
0.66529083 -0.29634571 -0.19514956 9 0
1.1927234 -0.53153354 0.022792844 9 8
0.73863673 -0.32932577 -0.18670937 9 1
1.3297101 -0.59313774 0.076305829 6 9
0.74945903 -0.33430776 -0.15951632 10 2
1.5537937 -0.69341886 0.148862 5 10
0.89646578 -0.40025765 -0.15549587 2 3
1.7816721 -0.79586112 0.23959514 4 11
0.81011736 -0.36204368 -0.1089512 8 4
2.1225219 -0.94900542 0.36824676 6 12
0.89488071 -0.40011206 -0.085761249 5 5
2.4838862 -1.111096 0.52892256 70 13
0.96255666 -0.43077403 -0.055266771 3 6
2.4562449 -1.0997605 0.62131482 72 14
1.0840278 -0.48559037 -0.020733459 5 7
2.4381032 -1.0926596 0.71589351 62 15
0.68539572 -0.30817282 -0.20136122 8 0
1.1908607 -0.53569376 0.022792844 9 8
0.74459094 -0.33510116 -0.18850899 8 1
1.3313785 -0.59918326 0.076515175 6 9
0.7482875 -0.33692187 -0.15951632 10 2
1.536831 -0.69229186 0.14746751 4 10
0.77980357 -0.3514396 -0.13547227 9 3
1.7825027 -0.80370736 0.24008264 4 11
0.80884868 -0.3648693 -0.1089512 8 4
2.1193633 -0.95603865 0.36824676 6 12
0.87168646 -0.39339837 -0.083669513 8 5
2.4925177 -1.1254148 0.53159386 72 13
0.97924888 -0.44235355 -0.056313496 5 6
2.4523911 -1.1083277 0.62131482 74 14
1.0660114 -0.48177063 -0.020419316 7 7
2.4274256 -1.0975552 0.71382296 62 15
0.65616912 -0.2977896 -0.19307902 19 0
1.1763309 -0.53385496 0.02254851 9 8
0.78606129 -0.35690412 -0.19930664 6 1
1.3401895 -0.6087833 0.077143207 6 9
0.74710685 -0.33953178 -0.15951632 10 2
1.536219 -0.69847685 0.14764182 5 10
0.77863389 -0.35402358 -0.13547227 9 3
1.7834413 -0.81125784 0.2405701 4 11
0.82208854 -0.3741276 -0.11090111 11 4
2.1196089 -0.96506798 0.36887249 6 12
0.89206558 -0.40634969 -0.085761249 5 5
2.4780524 -1.1287913 0.52930421 74 13
0.97414166 -0.44394192 -0.05610415 5 6
2.4611142 -1.1221131 0.62446409 77 14
1.0770586 -0.49129799 -0.020663649 5 7
2.4323668 -1.1100318 0.71641117 64 15
0.6797691 -0.31122261 -0.20032595 9 0
1.1671882 -0.53462684 0.02240889 9 8
0.70686114 -0.32392478 -0.17951094 10 1
1.3416874 -0.61512238 0.077352546 6 9
0.76025397 -0.34855303 -0.16256927 9 2
1.5338942 -0.70356733 0.14764182 5 10
0.82766354 -0.37980798 -0.1442326 6 3
1.7625582 -0.80919582 0.23813272 4 11
0.82799321 -0.38030922 -0.11187606 10 4
2.1323817 -0.97988433 0.37168834 6 12
0.87623006 -0.40265033 -0.084366761 7 5
2.4812322 -1.1407146 0.53083062 72 13
0.95988446 -0.4414975 -0.055371448 5 6
2.4642637 -1.1339557 0.62626374 75 14
1.0735208 -0.49421847 -0.020628745 5 7
2.430232 -1.1193238 0.71692878 62 15
0.66815645 -0.30873162 -0.19722012 18 0
1.1762055 -0.54373235 0.022618318 7 8
0.7340259 -0.33947855 -0.18670937 9 1
1.3268436 -0.61393112 0.076619849 6 9
0.73408788 -0.33966276 -0.15722662 11 2
1.5422773 -0.71393919 0.14868769 4 10
0.84425753 -0.39099616 -0.14736128 5 3
1.748916 -0.81033611 0.23667029 4 11
0.80144656 -0.37150916 -0.10846373 8 4
2.1181958 -0.98233521 0.36981112 6 12
0.89289397 -0.41408879 -0.086109869 5 5
2.4825778 -1.1518476 0.53197551 70 13
0.97101861 -0.45073181 -0.05610415 5 6
2.4532204 -1.1392676 0.62446409 75 14
1.0881107 -0.50554591 -0.020942887 5 7
2.4333174 -1.1310574 0.71899933 60 15
0.66707468 -0.31106204 -0.19722012 9 0
1.1815492 -0.55121648 0.022757938 7 8
0.75755864 -0.35357738 -0.19300801 7 1
1.3228828 -0.61771381 0.076515175 6 9
0.73289782 -0.34222314 -0.15722662 11 2
1.5488015 -0.72353482 0.14955924 5 10
0.82141274 -0.38390407 -0.14360686 6 3
1.7658571 -0.82568508 0.23935141 6 11
0.8037411 -0.37598675 -0.1089512 8 4
2.111176 -0.98804855 0.36918539 6 12
0.89866126 -0.42058122 -0.086807117 4 5
2.4963222 -1.1688315 0.5357917 70 13
0.95497006 -0.4473407 -0.055266771 2 6
2.4492288 -1.1478238 0.62446409 77 14
1.0555596 -0.49490964 -0.020349504 5 7
2.4346015 -1.1420056 0.72055227 58 15
0.65899289 -0.31009847 -0.19514956 9 0
1.1868548 -0.55874455 0.022897556 7 8
0.70343029 -0.33130911 -0.17951094 10 1
1.3351724 -0.62913853 0.077352546 6 9
0.74235451 -0.34980041 -0.15951632 10 2
1.5390576 -0.72553837 0.148862 5 10
0.79862797 -0.37665743 -0.13985243 7 3
1.7647594 -0.83269113 0.23959514 6 11
0.82037503 -0.38726407 -0.11138859 7 4
2.1130726 -0.99794263 0.37012401 6 12
0.88637817 -0.41861054 -0.085761249 2 5
2.4940021 -1.1783769 0.53617334 68 13
0.95340276 -0.4506714 -0.055266771 3 6
2.4593008 -1.1630312 0.62806332 75 14
1.0520182 -0.49773607 -0.0203146 5 7
2.4288542 -1.1496705 0.7200346 60 15
0.64050835 -0.30399874 -0.18997319 20 0
1.1849954 -0.5626772 0.022897556 7 8
0.73753214 -0.35036376 -0.18850899 8 1
1.3330787 -0.63356268 0.077352546 6 9
0.74828315 -0.35563114 -0.16104279 10 2
1.5312451 -0.72807139 0.14833906 5 10
0.79737455 -0.37930366 -0.13985243 7 3
1.7601961 -0.83768564 0.23935141 5 11
0.81191701 -0.38656899 -0.11041363 7 4
2.1115348 -1.0057936 0.37043685 6 12
0.88498515 -0.42154756 -0.085761249 2 5
2.4812193 -1.1824179 0.53426522 70 13
0.9519031 -0.45383054 -0.055266771 3 6
2.4607069 -1.1736971 0.62941307 72 14
1.070214 -0.51069528 -0.020698555 6 7
2.4267719 -1.1585507 0.72055227 57 15
0.67080563 -0.32125229 -0.19929068 18 0
1.1559732 -0.55384958 0.022373985 7 8
0.7363047 -0.35293612 -0.18850899 8 1
1.3308591 -0.63821208 0.077352546 6 9
0.74703729 -0.35824093 -0.16104279 10 2
1.5304909 -0.73427391 0.14851339 5 10
0.77823704 -0.37353694 -0.13672373 8 3
1.7590506 -0.84468412 0.23959514 4 11
0.81772006 -0.39283919 -0.11138859 7 4
2.106231 -1.0123026 0.37012401 6 12
0.88350827 -0.42463422 -0.085761249 5 5
2.4770768 -1.1910717 0.53426522 70 13
0.94671351 -0.45541891 -0.055057433 5 6
2.4688869 -1.188195 0.63256234 75 14
1.0756319 -0.51789784 -0.020838173 6 7
2.4366364 -1.1737217 0.72469336 57 15
0.67315906 -0.32527286 -0.20032595 9 0
1.1684359 -0.56484395 0.022653224 6 8
0.69998139 -0.33853495 -0.17951094 10 1
1.3106445 -0.63415486 0.076305829 6 9
0.73517865 -0.3557159 -0.15875308 10 2
1.5386784 -0.74482036 0.14955924 5 10
0.81959724 -0.39691493 -0.1442326 6 3
1.7471591 -0.84649146 0.23837645 5 11
0.80562592 -0.3904961 -0.10992616 7 4
2.113349 -1.02482 0.3720012 6 12
0.9107042 -0.44162506 -0.088550232 2 5
2.4711378 -1.1988542 0.53388357 63 13
0.94691479 -0.45959288 -0.055162102 5 6
2.4559591 -1.1925496 0.63031286 74 14
1.0648239 -0.5172804 -0.020663649 6 7
2.4307871 -1.1813755 0.72417569 56 15
0.65465468 -0.31915501 -0.19514956 19 0
1.1682544 -0.56979573 0.022688128 7 8
0.71981186 -0.35123125 -0.18490976 9 1
1.3191918 -0.64398289 0.076933861 6 9
0.7445181 -0.36344746 -0.16104279 10 2
1.5324885 -0.74843812 0.14921063 5 10
0.81820673 -0.39977342 -0.1442326 6 3
1.7709451 -0.86566156 0.24203253 6 11
0.80425793 -0.39330587 -0.10992616 7 4
2.0955637 -1.0252459 0.36949828 6 12
0.88768101 -0.43429428 -0.086458497 5 5
2.4845712 -1.2161037 0.53769976 60 13
0.9327485 -0.45674697 -0.054429401 2 6
2.4570317 -1.2036873 0.63166255 70 14
1.0683987 -0.52363437 -0.020768363 6 7
2.4370558 -1.1949564 0.72728157 56 15
0.65353662 -0.32143819 -0.19514956 9 0
1.178818 -0.58005035 0.022932461 7 8
0.70809126 -0.34857759 -0.18221036 9 1
1.3205194 -0.65034878 0.077143207 6 9
0.73619992 -0.36257452 -0.15951632 10 2
1.5280794 -0.75290233 0.14903632 5 10
0.79200095 -0.39039978 -0.13985243 7 3
1.7607912 -0.86832607 0.24105757 6 11
0.7957592 -0.39259771 -0.1089512 8 4
2.0990574 -1.0360516 0.37074974 6 12
0.87901318 -0.43386281 -0.085761249 5 5
2.4820716 -1.2256383 0.53808141 61 13
0.96158987 -0.47503847 -0.056208819 5 6
2.46155 -1.2165737 0.63391209 74 14
1.0665644 -0.52736062 -0.020768363 6 7
2.4259434 -1.2000297 0.72521096 54 15
0.66279382 -0.32886955 -0.19825539 9 0
1.1499188 -0.57082468 0.02240889 7 8
0.7173422 -0.35624787 -0.18490976 9 1
1.3200299 -0.6558429 0.07724788 6 9
0.7349298 -0.36514211 -0.15951632 10 2
1.5147371 -0.75291085 0.14799045 4 10
0.79063332 -0.39316201 -0.13985243 7 3
1.7684132 -0.87977219 0.24252002 6 11
0.8139326 -0.40510258 -0.11163233 7 4
2.0989649 -1.0451334 0.37137547 6 12
0.87392634 -0.43515235 -0.085412621 6 5
2.4812927 -1.2360457 0.53884465 61 13
0.94562531 -0.47126529 -0.055371448 5 6
2.4625204 -1.2277673 0.63526177 69 14
1.0665065 -0.53197294 -0.020803269 6 7
2.4251969 -1.2102158 0.7262463 55 15
0.64436662 -0.32253408 -0.19307902 19 0
1.1586474 -0.58020735 0.022618318 7 8
0.6951865 -0.34827521 -0.17951094 10 1
1.3267763 -0.66468966 0.077771239 6 9
0.75471246 -0.37826142 -0.16409574 9 2
1.5192238 -0.76176584 0.14868769 5 10
0.78925616 -0.39591941 -0.13985243 7 3
1.7404927 -0.8734743 0.23910768 6 11
0.79832113 -0.40081561 -0.10968242 8 4
2.1025488 -1.0556334 0.37262696 6 12
0.9044494 -0.45429745 -0.088550232 2 5
2.476963 -1.2446995 0.53884465 57 13
0.95825005 -0.48174 -0.056208819 5 6
2.4617016 -1.2381068 0.63616157 69 14
1.0575906 -0.53191262 -0.020663649 6 7
2.4315245 -1.2234612 0.72935206 56 15
0.65703273 -0.33174717 -0.19722012 9 0
1.1674274 -0.58945429 0.022827748 7 8
0.70098543 -0.35409319 -0.18131055 10 1
1.3191003 -0.66661447 0.077457219 6 9
0.73236275 -0.37026393 -0.15951632 10 2
1.5396683 -0.77875465 0.15095374 5 10
0.80909157 -0.40923345 -0.14360686 6 3
1.7429001 -0.88192999 0.23983888 6 11
0.79875869 -0.40435731 -0.10992616 7 4
2.1129494 -1.0701061 0.37512988 6 12
0.8744216 -0.44304386 -0.085761249 2 5
2.4763243 -1.2546811 0.53960788 57 13
0.93883264 -0.47588497 -0.055162102 5 6
2.4488921 -1.2418565 0.63391209 66 14
1.0699941 -0.54283899 -0.020942887 6 7
2.4306846 -1.2336901 0.73038733 53 15
0.64904267 -0.33041841 -0.19514956 9 0
1.1707083 -0.59624833 0.022932461 6 8
0.74488997 -0.37954041 -0.19300801 7 1
1.3078682 -0.66667968 0.076933861 6 9
0.72413439 -0.36912411 -0.15798986 10 2
1.5495019 -0.79019195 0.15217392 5 10
0.78654295 -0.40128252 -0.13985243 7 3
1.7468835 -0.89161825 0.24081384 5 11
0.80087817 -0.40894857 -0.11041363 7 4
2.1127195 -1.0792726 0.37575564 6 12
0.89069051 -0.45500496 -0.087504365 2 5
2.4894116 -1.2722518 0.54342401 57 13
0.95494878 -0.48825142 -0.056208819 5 6
2.4462774 -1.2512846 0.63436198 65 14
1.0520713 -0.5383721 -0.020628745 6 7
2.436681 -1.2474493 0.73349321 53 15
0.64788532 -0.33268198 -0.19514956 19 0
1.1632838 -0.59759003 0.022827748 7 8
0.69156337 -0.35541528 -0.17951094 10 1
1.3161906 -0.67672044 0.0775619 6 9
0.7228415 -0.37164956 -0.15798986 10 2
1.5148427 -0.77919197 0.14903632 5 10
0.78513741 -0.40402561 -0.13985243 7 3
1.7561151 -0.90407091 0.24252002 4 11
0.80650502 -0.41537735 -0.11138859 7 4
2.0843554 -1.0739739 0.37137547 6 12
0.86784351 -0.44716045 -0.085412621 3 5
2.4849553 -1.2809337 0.54342401 56 13
0.944363 -0.48700473 -0.055685461 5 6
2.4522855 -1.2651769 0.63706136 65 14
1.0572935 -0.54570991 -0.020768363 6 7
2.4220126 -1.2506293 0.73038733 54 15
0.6535818 -0.33849522 -0.19722012 18 0
1.1505376 -0.59612727 0.022618318 9 8
0.70069927 -0.363208 -0.18221036 9 1
1.3209126 -0.6849885 0.077980585 6 9
0.72851121 -0.37778565 -0.15951632 10 2
1.526262 -0.7918151 0.15043081 6 10
0.87138695 -0.45226312 -0.15549587 2 3
1.7635192 -0.91568393 0.24398245 4 11
0.79976535 -0.41544482 -0.11065737 7 4
2.0911107 -1.0867084 0.37325269 6 12
0.86981314 -0.45202449 -0.085761249 2 5
2.4787273 -1.2886945 0.54304242 58 13
0.9355697 -0.48661172 -0.055266771 5 6
2.4530404 -1.276428 0.6384111 66 14
1.0624772 -0.55309063 -0.020907983 7 7
2.4227724 -1.2617531 0.73194027 57 15
0.63869768 -0.33361924 -0.19307902 19 0
1.1626281 -0.60754895 0.022897556 7 8
0.70978904 -0.37106872 -0.18490976 9 1
1.3185134 -0.68959516 0.077980585 6 9
0.73414677 -0.38396579 -0.16104279 10 2
1.5323155 -0.80175632 0.15130237 5 10
0.72979444 -0.38201398 -0.13046636 10 3
1.7567949 -0.91999245 0.24349497 4 11
0.79303509 -0.41547033 -0.10992616 7 4
2.1013017 -1.1013374 0.37575564 6 12
0.86117125 -0.45135835 -0.085064009 6 5
2.47943 -1.3000741 0.54418731 56 13
0.92679071 -0.48616341 -0.05484809 3 6
2.4571977 -1.2895106 0.64066058 64 14
1.0658517 -0.55958468 -0.021012699 5 7
2.4269049 -1.2746938 0.73452848 54 15
0.6648764 -0.35025299 -0.20136122 17 0
1.1445788 -0.60321265 0.022583414 7 8
0.69814652 -0.3680909 -0.18221036 9 1
1.3054987 -0.68860263 0.077352546 6 9
0.739748 -0.39018989 -0.16256927 9 2
1.5154107 -0.79966152 0.14990787 5 10
0.78086346 -0.41222528 -0.13985243 7 3
1.7447962 -0.92148387 0.24227627 5 11
0.79509032 -0.42009068 -0.11041363 11 4
2.1026838 -1.1114349 0.37669426 6 12
0.87720501 -0.46367231 -0.086807117 4 5
2.4835544 -1.3133099 0.54609537 52 13
0.94097698 -0.49780115 -0.055790137 5 6
2.4423473 -1.2926106 0.63796121 61 14
1.0744954 -0.56891608 -0.021222128 5 7
2.4326835 -1.2885833 0.7376343 54 15
0.64317721 -0.34169546 -0.19514956 9 0
1.1583583 -0.61565071 0.022897556 7 8
0.68653357 -0.36503637 -0.17951094 10 1
1.3136671 -0.69878328 0.077980585 6 9
0.71064889 -0.37801781 -0.15646338 11 2
1.5319575 -0.81524229 0.15182531 5 10
0.77941984 -0.41494846 -0.13985243 7 3
1.7520814 -0.93316776 0.2437387 6 11
0.79361916 -0.42286351 -0.11041363 11 4
2.0883322 -1.1131927 0.37481701 5 12
0.87206477 -0.4648571 -0.086458497 5 5
2.4876165 -1.3265901 0.54800349 54 13
0.94628215 -0.50484318 -0.056208819 5 6
2.4446971 -1.3047985 0.63976079 61 14
1.0460433 -0.5585351 -0.020698555 7 7
2.4298749 -1.2979772 0.73815197 57 15
0.62835765 -0.33664006 -0.19100846 10 0
1.1667774 -0.6253584 0.023106987 7 8
0.7127341 -0.38216466 -0.18670937 9 1
1.31826 -0.70714098 0.078399271 6 9
0.72316551 -0.38792041 -0.15951632 10 2
1.5150577 -0.81304783 0.15043081 6 10
0.8023324 -0.4307479 -0.1442326 6 3
1.7575575 -0.94397438 0.24495739 6 11
0.78864092 -0.42375207 -0.10992616 7 4
2.0844338 -1.1204755 0.37481701 6 12
0.86692697 -0.46601164 -0.086109869 2 5
2.4864287 -1.3371251 0.54876673 54 13
0.96034396 -0.51665962 -0.057150867 5 6
2.4572875 -1.3225598 0.64425981 61 14
1.0476086 -0.56407905 -0.020768363 6 7
2.4202268 -1.3037028 0.73659903 53 15
0.65097409 -0.35168678 -0.19825539 9 0
1.1399585 -0.61611611 0.022618318 7 8
0.68396842 -0.36982036 -0.17951094 10 1
1.3034865 -0.70508653 0.077666566 6 9
0.72180694 -0.39044237 -0.15951632 10 2
1.4929355 -0.80790091 0.14851339 5 10
0.75913244 -0.41097522 -0.13672373 8 3
1.7490153 -0.94726759 0.2442262 5 11
0.79413837 -0.43028504 -0.11090111 11 4
2.0909297 -1.1333929 0.37669426 5 12
0.8758046 -0.47473174 -0.087155737 4 5
2.4834719 -1.346732 0.54914832 57 13
0.94273466 -0.51143718 -0.056208819 5 6
2.459507 -1.3348476 0.64605945 61 14
1.0473905 -0.56868666 -0.020803269 6 7
2.4224515 -1.3158313 0.73866957 52 15
0.63277799 -0.34471527 -0.19307902 9 0
1.1413126 -0.62200552 0.022688128 9 8
0.64845413 -0.35354862 -0.1705129 12 1
1.3062775 -0.71250141 0.077980585 6 9
0.73422801 -0.40048036 -0.16256927 9 2
1.505847 -0.82169634 0.15008219 5 10
0.81664419 -0.44580373 -0.14736128 5 3
1.730018 -0.94480377 0.24203253 4 11
0.78566337 -0.42924744 -0.10992616 7 4
2.0869608 -1.1406847 0.37669426 5 12
0.85316283 -0.46631911 -0.085064009 6 5
2.4735882 -1.3525671 0.54800349 54 13
0.93218255 -0.50993222 -0.055685461 5 6
2.4582515 -1.3452957 0.64695925 64 14
1.0664475 -0.58386284 -0.021222128 6 7
2.4246211 -1.3279914 0.74074018 54 15
0.64511651 -0.35436264 -0.19722012 9 0
1.1338769 -0.62309641 0.022583414 7 8
0.69161618 -0.38021916 -0.18221036 9 1
1.3020324 -0.71609432 0.077875912 6 9
0.73282558 -0.40304086 -0.16256927 9 2
1.5204256 -0.83655232 0.15182531 5 10
0.79777777 -0.4391261 -0.1442326 6 3
1.7388816 -0.95753968 0.2437387 5 11
0.78763765 -0.43390295 -0.11041363 7 4
2.0950766 -1.1546367 0.37888432 5 12
0.86548936 -0.47698772 -0.086458497 2 5
2.475729 -1.3649849 0.54952991 54 13
0.93039691 -0.513183 -0.055685461 5 6
2.4501281 -1.3519855 0.64605945 63 14
1.0468962 -0.5779177 -0.020873079 6 7
2.4267352 -1.3401824 0.74281067 55 15
0.63880575 -0.35380438 -0.19566721 19 0
1.1474373 -0.63577312 0.022897556 7 8
0.69028473 -0.38263106 -0.18221036 9 1
1.2909163 -0.71556658 0.077352546 6 9
0.73141426 -0.40559644 -0.16256927 9 2
1.5174962 -0.84185445 0.15182531 5 10
0.85841924 -0.47641727 -0.15549587 2 3
1.7424709 -0.96745819 0.24471366 6 11
0.77223539 -0.42893845 -0.10846373 8 4
2.0860555 -1.1587003 0.37794572 5 12
0.84988648 -0.4722639 -0.085064009 3 5
2.4846768 -1.3812497 0.55258286 54 13
0.93558186 -0.52031046 -0.05610415 5 6
2.4436908 -1.3595824 0.6456095 66 14
1.0432265 -0.580414 -0.020838173 7 7
2.4357817 -1.3557385 0.74695182 51 15
0.61732674 -0.34472948 -0.18945555 20 0
1.1523064 -0.64347452 0.023037177 7 8
0.70602471 -0.39442214 -0.18670937 9 1
1.3023584 -0.72786343 0.078189924 6 9
0.71285796 -0.39856616 -0.15875308 10 2
1.5162871 -0.84811902 0.15199961 5 10
0.77063406 -0.43104592 -0.13985243 7 3
1.739253 -0.97323114 0.24471366 6 11
0.79505897 -0.44507211 -0.11187606 7 4
2.0854452 -1.1679054 0.37857145 6 12
0.83780372 -0.46938473 -0.084018134 4 5
2.4749444 -1.3866029 0.55143803 52 13
0.95301622 -0.53415173 -0.057255544 5 6
2.4510672 -1.37435 0.64875883 57 14
1.0586346 -0.59383506 -0.021187222 6 7
2.4259803 -1.3613967 0.74539888 53 15
0.62796497 -0.353407 -0.19307902 19 0
1.1378558 -0.6406256 0.022792844 7 8
0.74878997 -0.42174926 -0.19840683 6 1
1.3085098 -0.73730737 0.078713283 6 9
0.7354781 -0.4144206 -0.16409574 9 2
1.4891677 -0.83944529 0.14955924 5 10
0.76912475 -0.43373334 -0.13985243 7 3
1.739303 -0.98124701 0.24520114 5 11
0.79004294 -0.44589326 -0.11138859 7 4
2.0796354 -1.1742066 0.37825859 5 12
0.84318233 -0.47607878 -0.084715381 3 5
2.478636 -1.4000612 0.5533461 54 13
0.94592929 -0.53452742 -0.056941528 5 6
2.4683087 -1.3953645 0.65460753 63 14
1.0426303 -0.5896517 -0.020907983 7 7
2.4195316 -1.3689052 0.74488121 51 15
0.64689034 -0.36703697 -0.19929068 18 0
1.1373516 -0.64558059 0.022827748 7 8
0.68630803 -0.38971883 -0.18221036 9 1
1.2937721 -0.73496473 0.077980585 6 9
0.72719896 -0.41310647 -0.16256927 9 2
1.5018182 -0.8534981 0.15112805 5 10
0.76760608 -0.4364154 -0.13985243 7 3
1.7531223 -0.99712658 0.24763852 5 11
0.77812958 -0.44275793 -0.10992616 7 4
2.0858245 -1.187322 0.38013577 5 12
0.87960863 -0.50070304 -0.088550232 2 5
2.4805579 -1.4125911 0.55487263 58 13
0.91282052 -0.52003038 -0.055057433 5 6
2.4617298 -1.4030073 0.6541577 65 14
1.0527259 -0.60022074 -0.021152316 5 7
2.4248071 -1.3830855 0.74798709 53 15
0.6388976 -0.36545596 -0.19722012 9 0
1.1420337 -0.65351957 0.022967368 7 8
0.64097178 -0.36693946 -0.1705129 12 1
1.2807996 -0.73352087 0.077352546 6 9
0.73256707 -0.41954511 -0.16409574 9 2
1.5074735 -0.86368757 0.15199961 5 10
0.79007143 -0.45284447 -0.1442326 6 3
1.7203557 -0.98645365 0.24349497 4 11
0.77657938 -0.44547147 -0.10992616 7 4
2.0919471 -1.2004949 0.38201302 5 12
0.88822383 -0.50972044 -0.0895961 4 5
2.4722066 -1.4192861 0.55410933 54 13
0.92831904 -0.53316051 -0.05610415 5 6
2.453438 -1.4096498 0.65325785 65 14
1.0488906 -0.60289526 -0.021117412 5 7
2.4300129 -1.3973193 0.75109291 50 15
0.62422979 -0.35996354 -0.19307902 9 0
1.1397456 -0.65750206 0.022967368 7 8
0.68357062 -0.39450064 -0.18221036 9 1
1.2955281 -0.7479735 0.078399271 6 9
0.72429723 -0.41817319 -0.16256927 9 2
1.5079 -0.87093741 0.15234824 5 10
0.7987482 -0.46152931 -0.1461098 5 3
1.7461184 -1.0093412 0.24763852 6 11
0.77845651 -0.45016697 -0.11041363 7 4
2.0860341 -1.2068006 0.38170013 4 12
0.86919338 -0.50284088 -0.087852985 2 5
2.4774325 -1.4338076 0.55639905 54 13
0.92645234 -0.53639776 -0.05610415 3 6
2.4468162 -1.4172289 0.65280795 66 14
1.0260172 -0.59452212 -0.020698555 5 7
2.4351485 -1.4116062 0.75419873 54 15
0.62971395 -0.36591399 -0.19514956 9 0
1.1375589 -0.66127795 0.022967368 7 8
0.68225861 -0.39676517 -0.18221036 9 1
1.2914454 -0.75103569 0.078294598 6 9
0.70254296 -0.40872562 -0.15798986 10 2
1.4963937 -0.87092185 0.15147668 5 10
0.78697079 -0.45821184 -0.1442326 6 3
1.7461923 -1.0171243 0.248126 5 11
0.76666862 -0.44674939 -0.1089512 8 4
2.090766 -1.218321 0.38326448 3 12
0.83653826 -0.48765901 -0.084715381 7 5
2.481144 -1.4469604 0.55830717 55 13
0.93674445 -0.54651231 -0.056836855 5 6
2.4555676 -1.4331934 0.65640718 66 14
1.0258714 -0.59875047 -0.020733459 6 7
2.4240289 -1.4153531 0.75212818 53 15
0.63676751 -0.37299195 -0.19773777 18 0
1.1336342 -0.6640358 0.022932461 7 8
0.72129112 -0.42267147 -0.19300801 7 1
1.3026 -0.76361984 0.079131976 6 9
0.72143406 -0.42309356 -0.16256927 9 2
1.5002184 -0.88017291 0.15217392 5 10
0.78544694 -0.46081901 -0.1442326 6 3
1.7359618 -1.01889 0.24715105 5 11
0.78914839 -0.46336094 -0.11236355 10 4
2.0847974 -1.2246112 0.38295162 4 12
0.84857291 -0.49865142 -0.086109869 5 5
2.4661763 -1.4492123 0.5560174 52 13
0.91598731 -0.53848159 -0.055685461 5 6
2.4692788 -1.4521953 0.66135609 59 14
