# .PCD v0.7 - Point Cloud Data file format
VERSION 0.7
FIELDS x y z intensity ring
SIZE 4 4 4 4 2
TYPE F F F F U
COUNT 1 1 1 1 1
WIDTH 1230
HEIGHT 1
VIEWPOINT 0 0 0 1 0 0 0
POINTS 1230
DATA ascii
-0.30387375 -2.4327216 -0.0427933 73 7
-0.50714165 -4.0542703 1.0948045 41 15
-0.17626728 -1.3875091 -0.37476999 8 0
-0.3023268 -2.376482 0.041815966 90 8
-0.20270817 -1.5889868 -0.36981952 6 1
-0.36824512 -2.8825858 0.15229765 74 9
-0.23292747 -1.8208047 -0.35681283 6 2
-0.49999484 -3.9030745 0.34426519 24 10
-0.28389993 -2.2100649 -0.35291618 7 3
-0.49792063 -3.8707979 0.47919029 30 11
-0.28074563 -2.1794896 -0.26981872 100 4
-0.51527596 -3.9946978 0.63793981 61 12
-0.2867566 -2.2169929 -0.19557749 100 5
-0.54394948 -4.1996593 0.82315004 55 13
-0.30672964 -2.3649187 -0.12497827 36 6
-0.57225531 -4.4061217 1.0257769 39 14
-0.30240387 -2.3220348 -0.040873535 46 7
-0.52761346 -4.0458126 1.0932516 40 15
-0.18048793 -1.3635854 -0.36855832 8 0
-0.31187546 -2.3530605 0.041432012 47 8
-0.21153879 -1.5917673 -0.37071934 6 1
-0.38280603 -2.8766587 0.1520883 75 9
-0.24453229 -1.8351284 -0.35986578 6 2
-0.52016145 -3.8984277 0.34409088 42 10
-0.29599157 -2.2124641 -0.35354191 6 3
-0.52187133 -3.8956833 0.48260266 35 11
-0.29215363 -2.17799 -0.26981872 100 4
-0.53697401 -3.9978185 0.63887841 66 12
-0.29756305 -2.2095373 -0.19505455 100 5
-0.56566912 -4.1948085 0.82276845 16 13
-0.59636188 -4.41079 1.0275764 39 14
-0.31509519 -2.3243828 -0.040943347 55 7
-0.54671097 -4.0276809 1.0891106 38 15
-0.18920615 -1.3741045 -0.37166417 8 0
-0.22040386 -1.5944986 -0.37161914 6 1
-0.33105052 -2.3918855 0.12654836 57 9
-0.25521567 -1.8416017 -0.36139226 6 2
-0.54166186 -3.9035447 0.3447881 40 10
-0.30430573 -2.1874056 -0.3497875 7 3
-0.54226202 -3.8928971 0.48260266 35 11
-0.30465016 -2.1842947 -0.27079371 100 4
-0.55817199 -3.9969082 0.63919127 63 12
-0.30664185 -2.1901906 -0.19348574 100 5
-0.58707976 -4.1879005 0.82200515 18 13
-0.33869576 -2.4130018 -0.12769975 1 6
-0.62026227 -4.4133959 1.0289261 34 14
-0.32921404 -2.3365622 -0.041187681 78 7
-0.56968141 -4.0381532 1.092734 41 15
-0.1958513 -1.3692701 -0.37062889 8 0
-0.36853337 -2.573349 0.045376256 64 8
-0.22598045 -1.574033 -0.36712012 6 1
-0.34101227 -2.3723266 0.12560631 100 9
-0.26429525 -1.8363537 -0.36062902 6 2
-0.56465054 -3.9184034 0.34635693 39 10
-0.31660211 -2.1916475 -0.3507261 7 3
-0.56377393 -3.8978629 0.48357758 35 11
-0.31608298 -2.1826696 -0.27079371 100 4
-0.580226 -4.0017505 0.64044279 61 12
-0.31867844 -2.1924984 -0.19383438 100 5
-0.60928291 -4.1867118 0.82238686 30 13
-0.35823697 -2.4586287 -0.13021187 4 6
-0.6439243 -4.4139442 1.0298259 34 14
-0.38050723 -2.6019239 -0.045899831 83 7
-0.59053707 -4.0332036 1.0922165 38 15
-0.20471923 -1.3796915 -0.37373474 8 0
-0.38964215 -2.622812 0.046283782 85 8
-0.2333709 -1.569014 -0.3662203 6 1
-0.37846339 -2.5384197 0.13450342 82 9
-0.27332708 -1.8310612 -0.35986578 6 2
-0.58663201 -3.9252458 0.34722847 42 10
-0.32739845 -2.1880634 -0.35041323 6 3
-0.58525985 -3.9067388 0.48504004 35 11
-0.32632795 -2.1731322 -0.26981872 100 4
-0.60175806 -4.0025644 0.64106852 65 12
-0.33155096 -2.2026784 -0.19488023 100 5
-0.63280606 -4.1991053 0.82543975 22 13
-0.39079404 -2.58706 -0.13712022 53 6
-0.66498721 -4.3970246 1.0266765 39 14
-0.39636636 -2.6177592 -0.046213973 73 7
-0.61210167 -4.0378027 1.0942869 40 15
-0.2116999 -1.3786377 -0.37373474 8 0
-0.40139288 -2.6109238 0.046109259 83 8
-0.24249528 -1.5755169 -0.36801991 6 1
-0.44337943 -2.8740098 0.15240233 77 9
-0.28079343 -1.8180127 -0.35757607 6 2
-0.60831845 -3.9340403 0.34827435 40 10
-0.33967796 -2.1941867 -0.35166472 6 3
-0.60685045 -3.9154963 0.48650244 33 11
-0.33854169 -2.1792991 -0.27079371 100 4
-0.62170577 -3.9975157 0.64075565 66 12
-0.34422818 -2.2108154 -0.19575179 100 5
-0.6528421 -4.1880894 0.82391334 21 13
-0.40573326 -2.5968888 -0.13774826 55 6
-0.68843871 -4.4013038 1.0284761 34 14
-0.63402718 -4.0441961 1.0968752 36 15
-0.21564639 -1.3584688 -0.36855832 8 0
-0.41554445 -2.6147835 0.046213973 81 8
-0.25196731 -1.5819236 -0.36981952 6 1
-0.46075076 -2.8894799 0.15334436 73 9
-0.29092017 -1.8223845 -0.35872093 5 2
-0.62822229 -3.9309108 0.34827435 42 10
-0.34991238 -2.184576 -0.35041323 6 3
-0.63048673 -3.9318657 0.48893982 41 11
-0.35019687 -2.1814778 -0.27128118 100 4
-0.64161777 -3.9923673 0.64044279 65 12
-0.35484877 -2.2030814 -0.19522884 100 5
-0.67569917 -4.1904283 0.82505816 73 13
-0.42046332 -2.6046605 -0.13827161 52 6
-0.71226156 -4.407382 1.0307257 33 14
-0.38877162 -2.4003501 -0.042444255 1 7
-0.65210193 -4.0217514 1.0916989 41 15
-0.22463354 -1.3687592 -0.37166417 8 0
-0.42760849 -2.6027055 0.046039447 86 8
-0.26088002 -1.5844283 -0.37071934 7 1
-0.47619855 -2.8889985 0.15344904 72 9
-0.29917943 -1.8130881 -0.35719445 6 2
-0.64879596 -3.9275677 0.34827435 42 10
-0.36199135 -2.1866119 -0.35103899 6 3
-0.64944208 -3.9187191 0.48772117 41 11
-0.3629142 -2.1874475 -0.27225614 65 4
-0.66380763 -3.996748 0.64169425 65 12
-0.3670333 -2.2051244 -0.19557749 100 5
-0.69408143 -4.1655302 0.82086033 73 13
-0.73597026 -4.4074364 1.0316256 33 14
-0.38384241 -2.293751 -0.040594298 9 7
-0.67538476 -4.0316191 1.0953223 40 15
-0.23179714 -1.3675643 -0.37166417 8 0
-0.44256848 -2.6083169 0.046179067 86 8
-0.26786587 -1.575356 -0.36891973 5 1
-0.49165371 -2.8884349 0.15355371 73 9
-0.31229615 -1.8327856 -0.36139226 4 2
-0.67236692 -3.9417932 0.34984317 42 10
-0.3721039 -2.1768978 -0.3497875 6 3
-0.66995162 -3.9152648 0.48772117 41 11
-0.37402752 -2.1835606 -0.27201241 94 4
-0.68606043 -4.0010052 0.64294571 60 12
-0.3789117 -2.2051358 -0.19575179 100 5
-0.71721351 -4.169579 0.82238686 60 13
-0.40602821 -2.3580146 -0.12539697 26 6
-0.76036161 -4.4112039 1.0334252 33 14
-0.39550635 -2.2897396 -0.040559392 67 7
-0.69780165 -4.0356417 1.0973928 40 15
-0.24161699 -1.3815556 -0.37580526 8 0
-0.45690921 -2.6099033 0.046248876 83 8
-0.27476367 -1.5662541 -0.36712012 6 1
-0.50469816 -2.8740177 0.15292569 73 9
-0.32018885 -1.8214571 -0.35948417 5 2
-0.69575882 -3.9539165 0.35123762 42 10
-0.38384005 -2.1768649 -0.35010037 5 3
-0.69354773 -3.929297 0.48991477 42 11
-0.38649148 -2.1874368 -0.27274361 46 4
-0.70768839 -4.0012488 0.6435715 65 12
-0.41131353 -2.3208306 -0.20621049 53 5
-0.74006438 -4.1715655 0.82353163 51 13
-0.41522622 -2.3381579 -0.12445491 55 6
-0.78106028 -4.3937321 1.0302758 34 14
-0.41064638 -2.3053553 -0.040873535 89 7
-0.71960098 -4.0357366 1.0984281 40 15
-0.24747644 -1.3726667 -0.37373474 8 0
-0.47234386 -2.6173148 0.046423402 81 8
-0.28434789 -1.5724646 -0.36891973 5 1
-0.52009493 -2.8733008 0.15303035 72 9
-0.3265712 -1.8023695 -0.3560496 5 2
-0.71787423 -3.9580607 0.35193488 40 10
-0.3966454 -2.1825995 -0.35135183 5 3
-0.71517789 -3.9314709 0.490646 41 11
-0.72721195 -3.9897153 0.64232004 58 12
-0.75801295 -4.146389 0.81933385 45 13
-0.43177706 -2.3595276 -0.12571098 100 6
-0.80370396 -4.3876648 1.0298259 33 14
-0.42054576 -2.2913728 -0.040664107 100 7
-0.74107081 -4.033813 1.0989457 42 15
-0.25113302 -1.3523583 -0.36855832 8 0
-0.29543164 -1.5862807 -0.37251896 5 1
-0.53586483 -2.8744652 0.1532397 69 9
-0.33708435 -1.8064247 -0.35719445 5 2
-0.73968577 -3.9601233 0.35245782 40 10
-0.40988493 -2.190201 -0.35291618 6 3
-0.73904282 -3.9452329 0.49283966 39 11
-0.42620525 -2.2730198 -0.2839556 8 4
-0.74809217 -3.9858532 0.64232004 63 12
-0.44664079 -2.3751383 -0.21143983 46 5
-0.76627553 -4.0709772 0.80521399 69 13
-0.44486549 -2.3611598 -0.12592033 83 6
-0.83063948 -4.4044619 1.0347749 34 14
-0.43179479 -2.2852094 -0.040594298 100 7
-0.7607457 -4.022285 1.0968752 41 15
-0.25966117 -1.3586148 -0.37062889 8 0
-0.44975325 -2.3510027 0.04178106 12 8
-0.29905888 -1.5617974 -0.36712012 5 1
-0.55316597 -2.883389 0.15386772 68 9
-0.34579748 -1.800779 -0.35643122 4 2
-0.76191509 -3.9640222 0.35315505 40 10
-0.41686022 -2.1667607 -0.34947464 6 3
-0.76231945 -3.9549537 0.49454582 41 11
-0.44110936 -2.2863503 -0.28590551 7 4
-0.77045006 -3.9896393 0.6435715 58 12
-0.44655648 -2.3102496 -0.20586187 9 5
-0.78160858 -4.0360699 0.79910809 63 13
-0.45836267 -2.3646803 -0.12623434 31 6
-0.85443169 -4.4038782 1.0356746 35 14
-0.44373673 -2.2849576 -0.040629201 100 7
-0.78256911 -4.0259686 1.0989457 42 15
-0.26826149 -1.364819 -0.37269944 8 0
-0.45703903 -2.323108 0.041327298 14 8
-0.30798537 -1.5640341 -0.36801991 6 1
-0.56852531 -2.8844714 0.15407708 68 9
-0.35604763 -1.8047841 -0.35757607 5 2
-0.78536439 -3.9736602 0.35437521 40 10
-0.42704937 -2.158735 -0.34853604 6 3
-0.78078538 -3.9432554 0.49357089 41 11
-0.45036027 -2.2724049 -0.28444308 7 4
-0.79440635 -4.0010509 0.64607441 58 12
-0.46408406 -2.335238 -0.20830221 13 5
-0.80432504 -4.0436149 0.80139786 69 13
-0.47812474 -2.4015062 -0.12832777 10 6
-0.87633002 -4.3975859 1.0352248 34 14
-0.46000111 -2.3041739 -0.041013155 99 7
-0.805152 -4.0293932 1.1010163 41 15
-0.27363735 -1.3558689 -0.37062889 8 0
-0.4664157 -2.3090048 0.041117873 42 8
-0.31385118 -1.5509399 -0.3653205 6 1
-0.58203435 -2.873625 0.15365838 68 9
-0.36861312 -1.818288 -0.36062902 5 2
-0.80784428 -3.9813502 0.3554211 40 10
-0.43834668 -2.1564693 -0.34853604 6 3
-0.80340046 -3.9488399 0.4947896 38 11
-0.45234963 -2.2213867 -0.27834961 4 4
-0.81425297 -3.9950435 0.64576155 55 12
-0.48706675 -2.3854833 -0.21300863 36 5
-0.82823765 -4.0528131 0.80406916 70 13
-0.52871519 -2.5848608 -0.13827161 55 6
-0.89856207 -4.3891187 1.0343249 33 14
-0.46964869 -2.2899804 -0.040803727 93 7
-0.8277927 -4.032692 1.1030868 43 15
-0.28308547 -1.3657676 -0.37373474 8 0
-0.48134264 -2.3202369 0.041362204 69 8
-0.32117459 -1.5454595 -0.36442071 6 1
-0.59829289 -2.8764045 0.1539724 66 9
-0.37332681 -1.7932684 -0.3560496 5 2
-0.83233678 -3.9946203 0.35698992 43 10
-0.45205361 -2.1657465 -0.35041323 6 3
-0.82893628 -3.9678962 0.49771443 37 11
-0.45544291 -2.1781831 -0.27323109 23 4
-0.83435053 -3.9868579 0.64513582 55 12
-0.48605987 -2.3185501 -0.20725635 10 5
-0.84984988 -4.0503421 0.80445075 72 13
-0.5167926 -2.4608705 -0.13178195 65 6
-0.91872483 -4.3710046 1.0311756 34 14
-0.48534089 -2.3051009 -0.041117873 73 7
-0.85088837 -4.0377541 1.105675 55 15
-0.28942865 -1.3604876 -0.37269944 7 0
-0.49431744 -2.3215966 0.041432012 61 8
-0.33088815 -1.5513799 -0.3662203 6 1
-0.61334521 -2.8732326 0.1539724 67 9
-0.38476223 -1.8008888 -0.35795769 5 2
-0.85365784 -3.9921558 0.3571642 40 10
-0.46586952 -2.1749396 -0.35229045 6 3
-0.85302985 -3.9790297 0.49966437 35 11
-0.47183901 -2.1990592 -0.27615595 32 4
-0.85604346 -3.9862978 0.64576155 53 12
-0.49190816 -2.286756 -0.20464167 33 5
-0.87393826 -4.0592713 0.80712205 24 13
-0.53724307 -2.4932749 -0.13366605 43 6
-0.93338251 -4.3280354 1.0221776 12 14
-0.56074011 -2.5957191 -0.046353593 72 7
-0.86671066 -4.0086966 1.0989457 28 15
-0.29572445 -1.3551786 -0.37166417 7 0
-0.5235337 -2.3971224 0.04282821 39 8
-0.34067237 -1.5572411 -0.36801991 6 1
-0.63265288 -2.889492 0.15501912 59 9
-0.39376616 -1.7969317 -0.35757607 5 2
-0.87625593 -3.9954162 0.35786149 40 10
-0.47216496 -2.149318 -0.34853604 6 3
-0.87640947 -3.9861412 0.50112677 34 11
-0.48334661 -2.1965587 -0.27615595 32 4
-0.87690401 -3.9817607 0.64576155 53 12
-0.51160008 -2.31917 -0.20777929 31 5
-0.83973408 -3.8035018 0.75713015 17 13
-0.54425788 -2.4631245 -0.13220063 95 6
-0.84157676 -3.8055356 0.89980417 35 14
-0.57691848 -2.6044619 -0.046563022 72 7
-0.79862684 -3.6023729 0.98868877 28 15
-0.30492488 -1.3630379 -0.37425235 7 0
-0.58413661 -2.6090002 0.046667732 56 8
-0.34882143 -1.555436 -0.36801991 5 1
-0.54061288 -2.4086893 0.1293745 50 9
-0.40704182 -1.8120852 -0.36101064 5 2
-0.9002229 -4.0043802 0.35908166 39 10
-0.48601568 -2.1583788 -0.35041323 6 3
-0.89683247 -3.9795613 0.50088304 30 11
-0.49265742 -2.1843154 -0.27493724 14 4
-0.90035021 -3.9886761 0.6476388 45 12
-0.81414288 -3.5979941 0.71706021 53 13
-0.53376687 -2.3570006 -0.12665303 65 6
-0.81712389 -3.6053216 0.85346431 56 14
-0.5923183 -2.609206 -0.046702638 73 7
-0.82004553 -3.6094451 0.99179465 43 15
-0.31162578 -1.3595396 -0.37373474 7 0
-0.59913069 -2.6117532 0.04677245 75 8
-0.35434243 -1.5421928 -0.3653205 5 1
-0.66063857 -2.8729761 0.15449576 60 9
-0.41476312 -1.802276 -0.35948417 5 2
-0.92386055 -4.011261 0.36012751 60 10
-0.49864236 -2.1615791 -0.35135183 7 3
-0.92390883 -4.0018897 0.50429535 50 11
-0.92433727 -3.9973793 0.64982885 52 12
-0.55339032 -2.389385 -0.21457744 13 5
-0.92961097 -4.0106182 0.80025297 36 13
-0.60657847 -2.6148839 -0.14067906 33 6
-1.017114 -4.3811774 1.0383741 64 14
-0.60778326 -2.6138597 -0.046842258 71 7
-1.0350931 -4.4480481 1.2236965 66 15
-0.31874004 -1.3578893 -0.37373474 7 0
-0.61279792 -2.6085804 0.04677245 79 8
-0.36419782 -1.5479041 -0.36712012 5 1
-0.67567247 -2.8694777 0.15449576 61 9
-0.42194238 -1.7905251 -0.35757607 5 2
-1.0363171 -4.394207 0.39498982 52 10
-0.51040775 -2.1608613 -0.35166472 6 3
-1.0416636 -4.4065499 0.55596799 52 11
-0.51916009 -2.1944909 -0.27688718 82 4
-1.0567559 -4.4634323 0.72648174 92 12
-0.54152912 -2.2837074 -0.20533893 8 5
-1.0603175 -4.4611087 1.0586197 100 14
-0.61775643 -2.5950789 -0.046563022 71 7
-1.0623977 -4.4594812 1.2283553 83 15
-0.3240402 -1.3486882 -0.37166417 7 0
-0.62831777 -2.6131134 0.04691207 79 8
-0.37594762 -1.5611326 -0.37071934 5 1
-0.69536692 -2.8853171 0.15554248 61 9
-0.42947054 -1.7806571 -0.3560496 5 2
-1.0560385 -4.3751631 0.39376962 43 10
-0.52635634 -2.1773596 -0.3547934 6 3
-1.0605211 -4.3836703 0.55377436 44 11
-0.53438032 -2.2071776 -0.27883708 34 4
-1.0801114 -4.4578381 0.72648174 100 12
-0.54643154 -2.2517977 -0.20272426 6 5
-1.0850687 -4.4680753 0.89374936 30 13
-0.63487095 -2.6122699 -0.14088841 12 6
-0.63228196 -2.5956945 -0.04663283 71 7
-0.32925296 -1.3394691 -0.36959362 7 0
-0.63912541 -2.5981367 0.046702638 81 8
-0.38225174 -1.5515741 -0.36891973 3 1
-0.71046489 -2.8816366 0.15554248 60 9
-0.4397288 -1.7821963 -0.35681283 5 2
-0.89982635 -3.6442132 0.32840282 1 10
-0.53111088 -2.147727 -0.35041323 7 3
-1.0825052 -4.3742037 0.55328691 33 11
-0.54068011 -2.1831534 -0.27615595 73 4
-0.58413291 -2.3533258 -0.21213706 10 5
-1.078158 -4.3403897 0.86932582 11 13
-0.65046734 -2.616663 -0.14130709 64 6
-1.081571 -4.347641 1.0343249 9 14
-0.64876497 -2.6039906 -0.046842258 71 7
-1.0758562 -4.3150239 1.1916029 8 15
-0.33861667 -1.3470945 -0.3721818 7 0
-0.65369582 -2.5986333 0.04677245 79 8
-0.38370568 -1.5230956 -0.3626211 5 1
-0.72700787 -2.8836875 0.15585649 59 9
-0.45097527 -1.7874839 -0.35833931 6 2
-0.93157631 -3.6896777 0.33293492 12 10
-0.54041189 -2.1372566 -0.34916177 6 3
-1.0907855 -4.3107419 0.54597467 12 11
-0.60034585 -2.3708038 -0.30028611 100 4
-1.0917965 -4.308414 0.70395517 12 12
-1.0796061 -4.2509604 0.85253465 10 13
-0.66366708 -2.6112857 -0.14120242 78 6
-1.0812633 -4.251265 1.0127296 10 14
-0.66436493 -2.608309 -0.046981879 70 7
-1.0736219 -4.2119884 1.1646857 10 15
-0.34662679 -1.3490452 -0.37321708 7 0
-0.66828936 -2.5990481 0.046842258 81 8
-0.39750656 -1.5437118 -0.36801991 5 1
-0.74159843 -2.877907 0.15575182 60 9
-0.46179903 -1.7908012 -0.35948417 5 2
-0.95536381 -3.7021122 0.33450374 28 10
-0.55456084 -2.1458731 -0.35103899 6 3
-1.085011 -4.1954255 0.5320816 8 11
-1.0885864 -4.2031999 0.68768603 9 12
-0.67977315 -2.6209383 -0.2368893 85 5
-1.0850793 -4.1806388 0.83955961 10 13
-0.67833483 -2.6116409 -0.14141177 74 6
-1.0868402 -4.1814184 0.99743295 10 14
-0.67902011 -2.6086652 -0.047051687 72 7
-1.0810523 -4.1502247 1.1491566 8 15
-0.3531951 -1.3453434 -0.37269944 7 0
-0.68493748 -2.6071179 0.047051687 79 8
-0.40657565 -1.5453786 -0.36891973 5 1
-0.7576741 -2.8778477 0.15596117 60 9
-0.46566713 -1.7674756 -0.35528636 6 2
-0.8817817 -3.3444996 0.30260473 21 10
-0.56528467 -2.1410301 -0.3507261 5 3
-1.0932717 -4.1378679 0.52550066 9 11
-0.57693464 -2.1820681 -0.27713093 7 4
-1.0903686 -4.1210556 0.6751712 9 12
-0.69348681 -2.6173429 -0.2368893 85 5
-1.0943758 -4.1274586 0.83001924 9 13
-0.69200015 -2.6080534 -0.14141177 73 6
-1.0907152 -4.1078653 0.98123646 10 14
-0.6906144 -2.5973442 -0.04691207 72 7
-1.0858783 -4.0810332 1.1315569 10 15
-0.35773268 -1.3341459 -0.37011126 7 0
-0.69961506 -2.6073585 0.047121495 79 8
-0.41466185 -1.5432285 -0.36891973 5 1
-0.77376902 -2.8776984 0.15617052 61 9
-0.47593549 -1.7688047 -0.3560496 5 2
-0.89772731 -3.334065 0.30208179 23 10
-0.57443011 -2.1304119 -0.34947464 5 3
-1.0885493 -4.0343428 0.51306999 11 11
-0.58679968 -2.1732681 -0.2763997 24 4
-1.084107 -4.0123124 0.65827632 43 12
-0.70457989 -2.6040599 -0.23601775 89 5
-1.0882648 -4.0193405 0.80941176 13 13
-0.70877999 -2.6159611 -0.14203981 75 6
-1.092321 -4.0287461 0.96369034 13 14
-0.70525217 -2.5975521 -0.046981879 72 7
-1.085452 -3.9951284 1.1092985 11 15
-0.36369321 -1.3285279 -0.36907598 7 0
-0.70955932 -2.5901592 0.046877164 77 8
-0.42479849 -1.5485535 -0.37071934 5 1
-0.79252696 -2.8870897 0.15690321 64 9
-0.48935068 -1.7814335 -0.35910255 6 2
-0.91517186 -3.329319 0.30208179 23 10
-0.5803346 -2.1083293 -0.34634593 5 3
-1.093843 -3.9711733 0.50575781 11 11
-0.71896517 -2.6084089 -0.33221585 68 4
-1.0930207 -3.9627829 0.65108031 11 12
-0.72032648 -2.608017 -0.23671499 87 5
-1.0857601 -3.9284337 0.79223901 10 13
-0.72353226 -2.6160638 -0.14224915 75 6
-1.0952077 -3.9572365 0.94794375 13 14
-0.71884334 -2.5938237 -0.046981879 75 7
-1.0882862 -3.9242342 1.0911812 10 15
-0.37168422 -1.3303264 -0.37011126 7 0
-0.72580349 -2.5960379 0.047051687 79 8
-0.42659652 -1.5237889 -0.3653205 6 1
-0.80817133 -2.8848238 0.15700789 67 9
-0.49443185 -1.7637237 -0.3560496 6 2
-0.93312973 -3.3263998 0.30225611 16 10
-0.59670776 -2.1242797 -0.34947464 5 3
-1.0958203 -3.8985057 0.49722698 9 11
-0.73960048 -2.629451 -0.33538446 94 4
-1.0976989 -3.8999605 0.64169425 13 12
-0.73667461 -2.6137979 -0.23758654 85 5
-1.0887284 -3.8603392 0.77964556 12 13
-0.73613477 -2.6083956 -0.14203981 73 6
-1.0984348 -3.8895602 0.933097 14 14
-0.73676795 -2.6054182 -0.047261119 73 7
-1.092512 -3.8608575 1.0751344 37 15
-0.38182202 -1.3395092 -0.37321708 7 0
-0.7404834 -2.5960476 0.047121495 79 8
-0.43349868 -1.5177869 -0.36442071 5 1
-0.82052106 -2.8709509 0.15648453 59 9
-0.50797862 -1.7762115 -0.35910255 5 2
-0.95382315 -3.3329613 0.30330199 16 10
-0.60999918 -2.128722 -0.3507261 5 3
-1.1058217 -3.8564587 0.49259594 55 11
-0.74459779 -2.5950129 -0.33148462 89 4
-1.1072005 -3.8561866 0.63543689 58 12
-0.75145143 -2.6137345 -0.23793517 80 5
-1.1110971 -3.8621333 0.7811721 48 13
-0.75088733 -2.6083438 -0.14224915 73 6
-1.1133912 -3.8650298 0.92859799 65 14
-0.75150794 -2.6053679 -0.047330927 70 7
-1.1137844 -3.8587961 1.0761696 53 15
-0.38451612 -1.3226513 -0.36907598 7 0
-0.75909334 -2.6094162 0.047435641 75 8
-0.4444432 -1.5267997 -0.36712012 6 1
-0.83833653 -2.8762026 0.15700789 73 9
-0.51617229 -1.7697581 -0.35833931 6 2
-0.97014463 -3.3240962 0.30295336 15 10
-0.62408817 -2.1369843 -0.35260335 5 3
-1.1287843 -3.8601422 0.49381462 63 11
-0.76151997 -2.6025097 -0.33294708 87 4
-1.1234907 -3.8370657 0.63324684 66 12
-0.76467079 -2.6098976 -0.23793517 83 5
-1.13462 -3.8675654 0.78346181 60 13
-0.76565945 -2.6082091 -0.14245848 70 6
-1.1352605 -3.8647559 0.92994767 71 14
-0.76242959 -2.5938566 -0.047191311 71 7
-1.138752 -3.8716426 1.0813459 37 15
-0.39253408 -1.3243243 -0.37011126 7 0
-0.77274549 -2.6054058 0.047435641 75 8
-0.45243144 -1.5244517 -0.36712012 5 1
-0.85231507 -2.8700078 0.15690321 75 9
-0.52288634 -1.7595952 -0.35681283 6 2
-0.98469532 -3.3094227 0.30208179 12 10
-0.63188654 -2.1223278 -0.3507261 5 3
-1.1505752 -3.8619897 0.4947896 64 11
-0.77695131 -2.6062317 -0.33392206 78 4
-1.1458259 -3.8387022 0.6344983 43 12
-0.77832586 -2.6058581 -0.23793517 85 5
-1.1547428 -3.8636541 0.7838434 57 13
-0.78228438 -2.6157815 -0.14308652 74 6
-1.1559246 -3.862694 0.93084741 74 14
-0.77600062 -2.589829 -0.047191311 71 7
-1.1551243 -3.8526742 1.0777225 45 15
-0.39811522 -1.3186218 -0.36907598 7 0
-0.78360963 -2.5938039 0.047296021 77 8
-0.46040708 -1.5220618 -0.36712012 6 1
-0.87022346 -2.8750639 0.15742657 76 9
-0.53436875 -1.764349 -0.35833931 6 2
-1.0037447 -3.3120234 0.30277905 13 10
-0.63840169 -2.103868 -0.34822315 5 3
-1.1702039 -3.8540125 0.49454582 61 11
-0.79116368 -2.6040273 -0.33416575 76 4
-1.1738588 -3.8612027 0.63919127 65 12
-0.79079908 -2.597935 -0.23758654 83 5
-1.1738124 -3.8537989 0.78308016 66 13
-0.7971344 -2.6154706 -0.14329587 76 6
-1.1819265 -3.8731585 0.93489659 71 14
-0.79305393 -2.5972052 -0.047400735 75 7
-1.1764101 -3.8502684 1.0787579 45 15
-0.40638074 -1.3201411 -0.37011126 7 0
-0.79645437 -2.5857043 0.047226213 75 8
-0.46377844 -1.504732 -0.36352089 6 1
-0.88820845 -2.8800108 0.15794992 71 9
-0.54274845 -1.7576801 -0.35757607 6 2
-1.0251784 -3.3179657 0.3038249 12 10
-0.64940882 -2.1004963 -0.34822315 5 3
-1.1897804 -3.8459361 0.49430209 63 11
-0.80876535 -2.6110859 -0.33562821 74 4
-1.1947331 -3.8547947 0.63919127 74 12
-0.80852187 -2.6070797 -0.23880674 78 5
-1.1957209 -3.853225 0.78422499 48 13
-0.81008834 -2.607305 -0.14308652 71 6
-1.2021897 -3.8669169 0.93489659 66 14
-0.81139404 -2.6082928 -0.047679976 71 7
-1.2046932 -3.8678248 1.0854871 35 15
-0.42022356 -1.3401154 -0.37632293 7 0
-0.81656736 -2.6024864 0.047610167 71 8
-0.47281846 -1.5060016 -0.36442071 6 1
-0.90138173 -2.8675418 0.15753125 73 9
-0.55547857 -1.7660509 -0.35986578 6 2
-1.0431354 -3.3144531 0.30399922 10 10
-0.66039783 -2.0970674 -0.34822315 5 3
-1.2135562 -3.8489084 0.49552077 72 11
-0.82063377 -2.601136 -0.33489698 70 4
-1.2149 -3.8484864 0.63919127 63 12
-0.82876271 -2.623709 -0.24072415 85 5
-1.220103 -3.8579307 0.7865147 49 13
-0.82493424 -2.6068361 -0.14329587 73 6
-1.2224205 -3.8605695 0.93489659 65 14
-0.82503963 -2.6040087 -0.047679976 71 7
-1.2254218 -3.865361 1.0865225 53 15
-0.42194566 -1.3213341 -0.37166417 7 0
-0.83200884 -2.6038899 0.047714882 69 8
-0.47832346 -1.4960806 -0.3626211 6 1
-0.91588426 -2.8629427 0.15753125 75 9
-0.55842483 -1.7445189 -0.3560496 5 2
-1.0604752 -3.3089459 0.30399922 10 10
-0.67559147 -2.1067479 -0.35041323 6 3
-1.2384802 -3.8597281 0.49771443 63 11
-0.83378881 -2.5969491 -0.33489698 56 4
-1.2362432 -3.845834 0.63981706 68 12
-0.83882856 -2.6079538 -0.23967829 83 5
-1.24202 -3.8591812 0.78804117 55 13
-0.83934259 -2.6064293 -0.1435052 70 6
-1.2419444 -3.8543327 0.93489659 71 14
-0.83620703 -2.5920408 -0.047540355 69 7
-1.2486113 -3.8680842 1.0891106 55 15
-0.42504624 -1.3081577 -0.36855832 7 0
-0.84703225 -2.6053505 0.047819596 71 8
-0.48976934 -1.5046738 -0.3653205 6 1
-0.93457305 -2.8695023 0.15815927 73 9
-0.57120121 -1.7527711 -0.35833931 6 2
-1.0796804 -3.3111126 0.30469647 8 10
-0.68845206 -2.1088152 -0.35135183 6 3
-1.2648364 -3.8720605 0.50015181 63 11
-0.85292548 -2.6095293 -0.33709061 54 4
-1.2575351 -3.84516 0.64075565 56 12
-0.85061234 -2.5978453 -0.23915535 78 5
-1.2652659 -3.8619535 0.7899493 57 13
-0.85671103 -2.6133864 -0.14413324 71 6
-1.2675745 -3.8644421 0.93894571 73 14
-0.85226321 -2.5952263 -0.047679976 73 7
-1.2658318 -3.8523169 1.0865225 57 15
-0.42946348 -1.2985777 -0.36648777 8 0
-0.857521 -2.5913873 0.04764507 69 8
-0.49886665 -1.5057884 -0.3662203 6 1
-0.95272684 -2.8740485 0.15868263 80 9
-0.57666236 -1.7385757 -0.3560496 6 2
-1.0957476 -3.3016322 0.30434784 7 10
-0.69014162 -2.0770626 -0.34665883 6 3
-1.2838407 -3.8616176 0.49966437 63 11
-0.86845684 -2.6106787 -0.33782184 52 4
-1.280146 -3.8460197 0.64200711 52 12
-0.86987191 -2.6103678 -0.24072415 85 5
-1.2860903 -3.8571379 0.79033089 60 13
-0.87164712 -2.612654 -0.14434259 71 6
-1.2908767 -3.8669946 0.94119519 73 14
-0.86837524 -2.5983148 -0.047819596 69 7
-1.2933375 -3.8676214 1.092734 55 15
-0.43995404 -1.307297 -0.36959362 8 0
-0.87363046 -2.5944424 0.04778469 67 8
-0.5005188 -1.4846895 -0.36172128 6 1
-0.97031587 -2.8765907 0.15910132 86 9
-0.587641 -1.7411131 -0.35719445 5 2
-1.1168443 -3.3071756 0.30539373 6 10
-0.704171 -2.082777 -0.34822315 6 3
-1.3046782 -3.8567228 0.49990809 70 11
-0.88275093 -2.607976 -0.33806559 50 4
-1.3072366 -3.8598454 0.64544868 74 12
-0.88160825 -2.6001167 -0.24020122 78 5
-1.3094225 -3.8596473 0.79223901 61 13
-0.88146299 -2.5967064 -0.14371455 71 6
-1.3180002 -3.8804801 0.94614416 53 14
-0.8858307 -2.6050916 -0.048029024 70 7
-1.3160596 -3.8681116 1.0948045 18 15
-0.44929591 -1.3122863 -0.37166417 8 0
-0.88914692 -2.5955079 0.047889404 71 8
-0.50828576 -1.4820484 -0.36172128 8 1
-0.98082632 -2.858247 0.15836863 57 9
-0.60248756 -1.7547238 -0.36062902 5 2
-1.3309376 -3.8741076 0.3583844 27 10
-0.71378165 -2.0753257 -0.34759742 6 3
-1.3255001 -3.851716 0.50015181 22 11
-0.89187026 -2.5901797 -0.33635944 43 4
-1.3242111 -3.8436096 0.64388436 19 12
-0.89845854 -2.6048825 -0.24107277 83 5
-1.320647 -3.8267562 0.78689629 30 13
-0.89895838 -2.6033831 -0.14434259 70 6
-1.3249369 -3.8348455 0.93669617 45 14
-0.9007659 -2.6041975 -0.048098832 72 7
-1.321131 -3.8173532 1.0823812 32 15
-0.4561609 -1.3099157 -0.37166417 7 0
-0.9066726 -2.6021469 0.048098832 73 8
-0.51539677 -1.4775268 -0.36127138 9 1
-1.3334086 -3.8204389 0.21206531 45 9
-0.60325259 -1.7274498 -0.35566798 6 2
-1.3452892 -3.8501585 0.35681561 47 10
-0.72529054 -2.0734243 -0.34791031 6 3
-1.3410592 -3.8316073 0.49844566 37 11
-0.90673214 -2.5892215 -0.33684689 28 4
-1.3397456 -3.8235738 0.64169425 39 12
-0.91142571 -2.5982625 -0.24089848 78 5
-1.3458667 -3.8346088 0.7899493 40 13
-0.91522443 -2.606178 -0.14476126 70 6
-1.3437061 -3.8241789 0.93579644 45 14
-0.91040778 -2.5881269 -0.047889404 71 7
-1.3475143 -3.8286066 1.0875577 35 15
-0.45656469 -1.2892989 -0.36648777 7 0
-0.9209525 -2.5992489 0.048133738 69 8
-0.52117163 -1.469298 -0.35992166 11 1
-1.3634145 -3.8416386 0.2136354 45 9
-0.61360294 -1.7279676 -0.35643122 6 2
-1.364763 -3.8411841 0.35664126 45 10
-0.73746079 -2.0733209 -0.34853604 6 3
-1.3657615 -3.8376243 0.50015181 38 11
-0.92493808 -2.5975287 -0.33855307 23 4
-1.3630624 -3.8258104 0.64325857 37 12
-0.92970341 -2.6065907 -0.24211864 89 5
-1.3698857 -3.8386035 0.79223901 34 13
-0.93288726 -2.6126361 -0.1453893 69 6
-1.3755119 -3.8501232 0.94389462 21 14
-0.92529368 -2.5870905 -0.047959212 70 7
-1.5654156 -4.3744431 1.2449197 24 15
-0.46461785 -1.2905259 -0.36752307 8 0
-0.93183875 -2.5868657 0.047994118 67 8
-0.53282404 -1.4775484 -0.3626211 12 1
-1.4458731 -4.0072885 0.22326522 16 9
-0.62197554 -1.7228844 -0.3560496 6 2
-1.6055135 -4.4448752 0.41346684 12 10
-0.74561965 -2.0620003 -0.34728456 6 3
-1.6195109 -4.4762907 0.58448541 64 11
-0.93987715 -2.5963833 -0.33904055 23 4
-1.6191936 -4.4705358 0.7530756 71 12
-0.94130123 -2.5960679 -0.24159572 76 5
-1.4221033 -3.919965 0.81055665 1 13
-0.94928008 -2.6152251 -0.14580798 73 6
-0.9442929 -2.5972447 -0.048238453 71 7
-1.6001863 -4.3988647 1.2542372 27 15
-0.47535205 -1.2989606 -0.37062889 7 0
-0.94880867 -2.5913401 0.048168644 73 8
-0.53921187 -1.4710786 -0.36172128 12 1
-1.5239135 -4.1552992 0.23195298 22 9
-0.63436937 -1.7288197 -0.35795769 5 2
-1.6424974 -4.473814 0.41695309 78 10
-0.75572467 -2.0562139 -0.34697169 6 3
-1.4175203 -3.8547847 0.50429535 22 11
-0.95277393 -2.5895636 -0.33879682 22 4
-1.6425792 -4.4619966 0.7530756 73 12
-0.9659043 -2.6210155 -0.24438471 92 5
-1.4426086 -3.9124651 0.81055665 1 13
-0.96157789 -2.6064713 -0.14559864 70 6
-1.4400473 -3.9013224 0.96009105 1 14
-0.95787942 -2.5922649 -0.048238453 70 7
-1.6272163 -4.4012976 1.2573429 27 15
-0.48484033 -1.3036968 -0.37269944 7 0
-0.9644556 -2.591959 0.048273355 69 8
-0.54826754 -1.4718876 -0.3626211 11 1
-1.5484393 -4.1547489 0.23237166 21 9
-0.63929713 -1.7144375 -0.35566798 5 2
-1.6742572 -4.4875526 0.41904479 93 10
-0.76440692 -2.0466774 -0.3460331 6 3
-1.6676865 -4.4628053 0.58497292 59 11
-0.96145332 -2.5715234 -0.33709061 17 4
-1.6645349 -4.4496346 0.75244987 58 12
-0.97472364 -2.6028612 -0.24316452 83 5
-1.4630746 -3.9048579 0.81055665 1 13
-0.97380978 -2.5976605 -0.1453893 73 6
-1.4768797 -3.9375193 0.97088867 1 14
-0.97706217 -2.6021907 -0.048517693 73 7
-1.6556737 -4.4071846 1.261484 27 15
-0.48892838 -1.2939116 -0.37062889 7 0
-0.98367125 -2.6018374 0.048552595 75 8
-0.55941552 -1.4781096 -0.36487061 9 1
-1.5680504 -4.1409807 0.23205765 18 9
-0.64965624 -1.7147382 -0.35643122 6 2
-1.6991429 -4.482451 0.41939342 91 10
-0.78212112 -2.0611155 -0.34916177 6 3
-1.6966678 -4.4688592 0.58692282 75 11
-0.97983891 -2.5794444 -0.33879682 18 4
-1.6878105 -4.4408584 0.75244987 48 12
-0.98975551 -2.6014462 -0.24351314 85 5
-1.4834999 -3.8971441 0.81055665 1 13
-0.99450648 -2.6111908 -0.14643602 70 6
-1.4974763 -3.9297326 0.97088867 1 14
-0.98639786 -2.5858288 -0.048308261 72 7
-1.6828603 -4.4092851 1.2645899 27 15
-0.49154276 -1.2805127 -0.36752307 8 0
-0.9979977 -2.5985184 0.048587501 73 8
-0.56828779 -1.4788973 -0.3657704 7 1
-1.5975994 -4.1532192 0.23320904 24 9
-0.65792036 -1.709481 -0.3560496 5 2
-1.7233057 -4.4753523 0.41956773 82 10
-0.79467392 -2.0626602 -0.35010037 6 3
-1.7186141 -4.4562092 0.58643532 50 11
-0.99261683 -2.5724266 -0.33855307 14 4
-1.7096168 -4.4282742 0.75182414 41 12
-1.000756 -2.5908277 -0.24299021 78 5
-1.7297509 -4.4734535 0.93229276 68 13
-1.0124885 -2.6171241 -0.14706406 70 6
-1.7304714 -4.4706774 1.1067592 55 14
-1.0052503 -2.5957212 -0.048587501 69 7
-1.7065524 -4.4043131 1.2656252 29 15
-0.49824062 -1.2779214 -0.36752307 7 0
-1.0101364 -2.5895312 0.048517693 73 8
-0.58027464 -1.4867939 -0.36846983 7 1
-1.6171463 -4.1413589 0.2329997 22 9
-0.66942221 -1.7134438 -0.35757607 6 2
-0.79394603 -2.0290382 -0.34509447 5 3
-1.7505549 -4.4714842 0.58960396 55 11
-1.0121402 -2.5840051 -0.34074673 13 4
-1.7291737 -4.4100661 0.75025976 29 12
-1.017946 -2.5948262 -0.24386176 83 5
-1.7516538 -4.4628139 0.93191117 74 13
-1.0286422 -2.6194022 -0.14748274 69 6
-1.0232193 -2.6015878 -0.048796929 69 7
-1.7324189 -4.4025083 1.2676958 31 15
-0.5118109 -1.2933464 -0.37269944 8 0
-1.0254387 -2.5899627 0.048622403 77 8
-0.58230728 -1.4692421 -0.36487061 8 1
-1.6446981 -4.1476874 0.23383708 19 9
-0.68055665 -1.7153898 -0.35872093 6 2
-1.7354852 -4.3721852 0.41154939 43 10
-0.81039464 -2.0395396 -0.34759742 5 3
-1.7761437 -4.4677911 0.59033519 72 11
-1.0161182 -2.5546908 -0.33757812 12 4
-1.7543949 -4.4085999 0.75151128 28 12
-1.0352055 -2.5987151 -0.24473332 76 5
-1.0379047 -2.6028492 -0.14685471 71 6
-1.5511143 -3.8878982 0.96638966 3 14
-1.0397935 -2.6036229 -0.04893655 75 7
-1.7626147 -4.4113164 1.2728721 33 15
-0.51785564 -1.2888563 -0.3721818 7 0
-1.0494275 -2.610534 0.049111072 75 8
-0.58853728 -1.4625571 -0.36397079 8 1
-1.656696 -4.114934 0.23247635 13 9
-0.69172949 -1.7172661 -0.35986578 6 2
-1.8082526 -4.4868522 0.42322829 88 10
-0.82106251 -2.0352683 -0.34759742 5 3
-1.8002551 -4.4602709 0.59057891 78 11
-1.0227908 -2.5327692 -0.33538446 9 4
-1.7752342 -4.3938589 0.75057268 21 12
-1.1571138 -2.8610814 -0.27000847 103 5
-1.808601 -4.4697051 0.93725383 73 13
-1.1639409 -2.8750746 -0.1625555 95 6
-1.8092154 -4.4667392 1.1126078 60 14
-1.1728787 -2.8927968 -0.054486416 83 7
-1.7907709 -4.4145579 1.2764956 30 15
-0.52386725 -1.2843384 -0.37166417 7 0
-1.1847281 -2.9030881 0.054730747 74 8
-0.59618711 -1.4594555 -0.36397079 8 1
-1.4810033 -3.6236639 0.20515697 34 9
-0.6925379 -1.6936315 -0.35566798 6 2
-1.8370018 -4.4902306 0.42444846 88 10
-0.8361994 -2.0419097 -0.34947464 6 3
-1.8265948 -4.4581308 0.59155381 71 11
-1.0382975 -2.5328896 -0.33611569 8 4
-1.7974658 -4.3826752 0.75025976 22 12
-1.191752 -2.9029045 -0.27454057 83 5
-1.8372003 -4.4728861 0.93992513 76 13
-1.1941618 -2.9058881 -0.16464894 82 6
-1.8399888 -4.4752283 1.1171069 42 14
-1.1918142 -2.8958619 -0.054660939 70 7
-1.8175389 -4.414053 1.2790838 27 15
-0.52467304 -1.2672983 -0.36752307 7 0
-1.2006778 -2.8986928 0.054765653 63 8
-0.61277711 -1.4779156 -0.36936963 7 1
-1.4632229 -3.5273082 0.20013271 20 9
-0.70440662 -1.6972353 -0.35719445 6 2
-1.8597227 -4.4787102 0.42427412 82 10
-0.84839571 -2.0411513 -0.35010037 5 3
-1.8605834 -4.4741673 0.59496623 72 11
-1.0515453 -2.5274184 -0.33611569 8 4
-1.8226663 -4.3786745 0.75119835 22 12
-1.1916088 -2.8598425 -0.27105436 67 5
-1.8605952 -4.4632053 0.93992513 76 13
-1.2001348 -2.8774753 -0.16339287 78 6
-1.8611441 -4.4601378 1.1157572 58 14
-1.1892343 -2.8471425 -0.053858127 79 7
-1.840626 -4.4044762 1.2790838 20 15
-0.53130138 -1.2645339 -0.36752307 8 0
-1.1987904 -2.8518105 0.053997744 64 8
-0.61899549 -1.4710945 -0.36846983 7 1
-1.4669476 -3.4846234 0.19814396 28 9
-0.71785575 -1.7043798 -0.35948417 6 2
-1.8885638 -4.4817638 0.42549434 30 10
-0.85292965 -2.0221207 -0.34759742 5 3
-1.8855281 -4.4680219 0.59545368 70 11
-1.0632201 -2.5182204 -0.33562821 8 4
-1.8547918 -4.3909082 0.75495279 22 12
-1.2065667 -2.853564 -0.27105436 51 5
-1.885469 -4.4570184 0.94068843 76 13
-1.2112921 -2.8619554 -0.16286951 51 6
-1.8981717 -4.4805074 1.1234056 61 14
-1.204906 -2.8427174 -0.05389303 44 7
-1.8712044 -4.4125638 1.2842602 13 15
-0.53965116 -1.2651945 -0.36855832 7 0
-1.1992904 -2.8103373 0.053334557 49 8
-0.62209833 -1.4570799 -0.3657704 7 1
-1.4741892 -3.4511807 0.19667853 42 9
-0.72861034 -1.7040814 -0.3602474 6 2
-1.5107943 -3.531755 0.33607253 19 10
-0.85884231 -2.0067306 -0.3457202 5 3
-1.9096781 -4.4599118 0.5956974 71 11
-1.0752652 -2.5087819 -0.33514073 8 4
-1.8847497 -4.3953323 0.75745571 22 12
-1.208923 -2.8179114 -0.26826537 47 5
-1.8119856 -4.2215743 0.89298618 17 13
-1.2054725 -2.8058131 -0.16004337 43 6
-1.9216051 -4.4705071 1.1234056 61 14
-1.2023934 -2.7959552 -0.053125124 42 7
-1.8981065 -4.4094725 1.2863307 10 15
-0.54626817 -1.2623518 -0.36855832 8 0
-1.2036601 -2.7801633 0.052880794 50 8
-0.62817001 -1.4502263 -0.36487061 8 1
-1.4801284 -3.413835 0.19500379 50 9
-0.732054 -1.6876352 -0.35757607 5 2
-1.5118159 -3.4835868 0.33223769 25 10
-0.87248474 -2.0094543 -0.34697169 5 3
-1.937737 -4.4586177 0.59691608 72 11
-1.0883864 -2.5031176 -0.33514073 8 4
-1.9116772 -4.3944607 0.75902009 20 12
-1.2117341 -2.7841399 -0.26565069 48 5
-1.9257565 -4.4204936 0.93725383 48 13
-1.2073789 -2.7701685 -0.15836863 48 6
-1.9465442 -4.4639564 1.1243054 60 14
-1.203423 -2.7584624 -0.052531745 43 7
-1.9273553 -4.4157443 1.2909895 9 15
-0.55908239 -1.2736256 -0.37269944 8 0
-1.2125719 -2.7610064 0.052636456 54 8
-0.63732255 -1.4504855 -0.3657704 7 1
-1.489351 -3.3880155 0.19395708 50 9
-0.73742503 -1.6767198 -0.3560496 5 2
-1.5163881 -3.4446235 0.32927439 52 10
-0.89095616 -2.0229363 -0.35010037 5 3
-1.9642812 -4.4578362 0.59813482 67 11
-1.1026435 -2.5012093 -0.33562821 8 4
-1.9418384 -4.4006562 0.76183593 22 12
-1.2150301 -2.7522397 -0.26321036 53 5
-1.9814194 -4.4861174 0.95328182 79 13
-1.2092756 -2.7366188 -0.15679854 46 6
-1.9769931 -4.4718704 1.1288043 61 14
-1.1984288 -2.7082357 -0.051694028 44 7
-1.9488857 -4.4020586 1.2899542 9 15
-0.5576672 -1.2531298 -0.36752307 8 0
-1.2110776 -2.7201242 0.051973268 45 8
-0.65284085 -1.4649285 -0.37026942 7 1
-1.4867375 -3.3345668 0.19134027 35 9
-0.74299508 -1.6656637 -0.35452312 5 2
-1.5264955 -3.4205296 0.32770559 54 10
-0.89992476 -2.0146365 -0.34947464 5 3
-1.7438027 -3.9019749 0.52476943 19 11
-1.1181551 -2.5008383 -0.33635944 9 4
-1.9648932 -4.3925748 0.7621488 20 12
-1.2066267 -2.6949239 -0.25832963 48 5
-1.966357 -4.3896794 0.93496412 50 13
-1.210519 -2.7010882 -0.1551238 50 6
-2.0043669 -4.4703493 1.1310539 58 14
-1.1994922 -2.6727333 -0.051135551 45 7
-1.9671602 -4.3812199 1.2868483 7 15
-0.56422096 -1.2501926 -0.36752307 8 0
-1.2014389 -2.6608925 0.050961025 42 8
-0.66050225 -1.4614902 -0.37026942 7 1
-1.507468 -3.3340163 0.19175896 66 9
-0.75575191 -1.6706944 -0.35643122 5 2
-1.5460275 -3.4161203 0.32805422 46 10
-0.90067959 -1.9883043 -0.3457202 5 3
-2.0280623 -4.4749918 0.6032533 63 11
-1.1304145 -2.4931414 -0.33611569 8 4
-1.9935777 -4.3948188 0.76433885 18 12
-1.2083653 -2.6613569 -0.25571495 47 5
-1.996622 -4.3954105 0.93839866 11 13
-1.210597 -2.6638019 -0.15334436 47 6
-2.0341985 -4.4739847 1.1346531 62 14
-1.201874 -2.6409352 -0.050646886 44 7
-1.9948759 -4.3814092 1.2899542 7 15
-0.57397467 -1.254248 -0.36959362 8 0
-1.2086954 -2.6400194 0.050681788 48 8
-0.6575917 -1.4349812 -0.36442071 6 1
-1.5190777 -3.3133688 0.19102626 70 9
-0.77021891 -1.6792058 -0.35910255 6 2
-1.5580763 -3.3953025 0.32683402 49 10
-0.91602516 -1.9943317 -0.34759742 5 3
-2.0448346 -4.4498811 0.60130334 57 11
-1.1401361 -2.4799743 -0.33514073 8 4
-2.0272923 -4.4076509 0.76840615 20 12
-1.2131189 -2.6350853 -0.25379753 60 5
-2.0614955 -4.4758396 0.95786124 78 13
-1.2086465 -2.622962 -0.15135561 62 6
-2.0641241 -4.4774299 1.1382524 63 14
-1.2089823 -2.6200807 -0.050367646 71 7
-2.0250776 -4.3866892 1.2946129 6 15
-0.58053404 -1.2512255 -0.36959362 8 0
-1.2132404 -2.613703 0.050297838 69 8
-0.66509604 -1.4315184 -0.36442071 8 1
-1.5296704 -3.2908802 0.19018888 67 9
-0.77486128 -1.6662493 -0.35719445 6 2
-1.580875 -3.3979368 0.32787988 63 10
-0.93145853 -2.0002525 -0.34947464 5 3
-1.9473894 -4.1800008 0.56620502 16 11
-1.151428 -2.470372 -0.33465323 8 4
-2.0536828 -4.4041362 0.76965761 22 12
-1.2243713 -2.6232812 -0.25327459 89 5
-1.2249002 -2.6220262 -0.15166962 70 6
-2.0842383 -4.4594989 1.1364527 63 14
-1.2269214 -2.6227708 -0.050542168 75 7
-2.0406482 -4.3602791 1.2899542 6 15
-0.58789957 -1.2499168 -0.37011126 7 0
-1.2345716 -2.6235993 0.050611977 81 8
-0.67258257 -1.4280163 -0.36442071 6 1
-1.5460286 -3.2810194 0.19008422 68 9
-0.77855247 -1.6515142 -0.35490477 5 2
-1.5994952 -3.3914146 0.32805422 60 10
-0.94191879 -1.995348 -0.34947464 5 3
-2.1116664 -4.4713039 0.60715312 56 11
-1.1643474 -2.464309 -0.33465323 8 4
-2.0809352 -4.4022527 0.771222 20 12
-1.2449064 -2.6312425 -0.25466907 80 5
-1.8814687 -3.97489 0.8548243 7 13
-1.2437409 -2.6264071 -0.15229765 76 6
-2.1159027 -4.466136 1.1409518 62 14
-1.2389235 -2.6126971 -0.05047236 71 7
-2.0700741 -4.3634973 1.2940953 6 15
-0.58695382 -1.231127 -0.3654525 7 0
-1.2500139 -2.6207085 0.050681788 79 8
-0.68508768 -1.4350269 -0.36712012 6 1
-1.5614657 -3.2692745 0.18987487 57 9
-0.78634244 -1.6456436 -0.35452312 5 2
-1.6103557 -3.368613 0.32665971 56 10
-0.9489429 -1.9832611 -0.34822315 5 3
-2.1419055 -4.4745102 0.60910302 72 11
-1.1806639 -2.4653406 -0.33562821 8 4
-2.1150522 -4.4144559 0.7752893 20 12
-1.2586663 -2.6246881 -0.25466907 73 5
-2.1281478 -4.4358263 0.95633471 8 13
-1.2643893 -2.6342638 -0.15313502 71 6
-2.1476936 -4.4725633 1.1454507 62 14
-1.2560519 -2.6133835 -0.050611977 67 7
-2.0836849 -4.333447 1.2884012 6 15
-0.59759432 -1.2367342 -0.36804068 7 0
-1.2628483 -2.6123273 0.050646886 77 8
-0.68919683 -1.4244033 -0.3653205 6 1
-1.5994469 -3.3041992 0.19238698 56 9
-0.80264938 -1.6574064 -0.35795769 5 2
-1.6349212 -3.3744793 0.32805422 45 10
-0.95241863 -1.9640459 -0.3457202 5 3
-2.1722362 -4.4775224 0.61105299 85 11
-1.1970237 -2.4662678 -0.33660313 8 4
-2.1346858 -4.3962135 0.77403784 16 12
-1.2758758 -2.6252296 -0.25536633 85 5
-2.0929689 -4.3045611 0.93038476 3 13
-1.279912 -2.6311996 -0.15334436 73 6
-2.1787577 -4.4770265 1.1494999 61 14
-1.2740964 -2.6157598 -0.050786503 68 7
-2.1004221 -4.3103213 1.2847778 4 15
-0.61170787 -1.2492032 -0.37269944 7 0
-1.2817872 -2.6164541 0.050856311 75 8
-0.6914978 -1.4102769 -0.3626211 6 1
-1.6334381 -3.329849 0.19437577 63 9
-0.81304669 -1.6567061 -0.35872093 4 2
-1.6543233 -3.3694499 0.32840282 48 10
-0.96704566 -1.9678966 -0.34728456 6 3
-2.1842656 -4.4429278 0.60788435 70 11
-1.2081683 -2.456404 -0.33611569 8 4
-2.1646526 -4.3991547 0.77654076 16 12
-1.2922446 -2.6238754 -0.25588927 76 5
-2.2022493 -4.4696527 0.96854651 49 13
-1.2901396 -2.617296 -0.15292569 71 6
-2.2082024 -4.4777918 1.1526492 63 14
-1.2957405 -2.6251917 -0.051100649 72 7
-2.101578 -4.2559605 1.2718368 2 15
-0.61394709 -1.2373304 -0.37011126 7 0
-1.3008039 -2.6204538 0.051065743 69 8
-0.70234108 -1.4136177 -0.36442071 6 1
-1.6517402 -3.3230391 0.19448043 61 9
-0.81559068 -1.6401209 -0.3560496 5 2
-1.6861427 -3.3892827 0.33119181 48 10
-0.97821665 -1.9645746 -0.34759742 6 3
-2.2243156 -4.4651899 0.61251533 79 11
-1.2174714 -2.4429379 -0.33514073 7 4
-2.192945 -4.3983679 0.778418 16 12
-1.3184199 -2.6420319 -0.25832963 92 5
-2.2291291 -4.4650865 0.97007298 63 13
-1.3109658 -2.6247993 -0.15376306 74 6
-2.2316172 -4.4661689 1.1526492 62 14
-1.3112574 -2.6219478 -0.051170457 69 7
-2.087528 -4.1723361 1.2500961 2 15
-0.61607862 -1.2254689 -0.36752307 7 0
-1.3207965 -2.626112 0.051310074 71 8
-0.71499026 -1.4203647 -0.36712012 6 1
-1.6727099 -3.3214805 0.19489913 59 9
-0.81621689 -1.6200484 -0.35261503 4 2
-1.7029686 -3.3786285 0.33101749 39 10
-0.99115866 -1.9647169 -0.34853604 6 3
-2.2548196 -4.4676604 0.6144653 81 11
-1.2248778 -2.4258974 -0.33367831 7 4
-2.2159441 -4.3868256 0.778418 16 12
-1.3268421 -2.6244237 -0.25728375 78 5
-2.2551358 -4.4586096 0.97121781 57 13
-1.3301015 -2.6285915 -0.15439108 73 6
-2.2593729 -4.4631157 1.1548988 65 14
-1.3231601 -2.6114788 -0.051100649 69 7
-2.1093464 -4.1613483 1.2500961 2 15
-0.6242401 -1.2256693 -0.36855832 7 0
-1.336345 -2.6227238 0.051379886 71 8
-0.72064668 -1.4131296 -0.3662203 6 1
-1.7000631 -3.3322465 0.19605052 50 9
-0.82825857 -1.6227469 -0.3541415 4 2
-1.7215415 -3.3714402 0.33119181 42 10
-0.99873579 -1.9542232 -0.34759742 6 3
-2.2872176 -4.4734674 0.61690265 76 11
-1.2411788 -2.4265199 -0.33465323 8 4
-2.2451828 -4.3874717 0.78060806 15 12
-1.3460146 -2.6280806 -0.25832963 82 5
-1.9776416 -3.8596659 0.84299421 25 13
-1.351135 -2.6358101 -0.15522847 71 6
-2.2933815 -4.472033 1.1602976 55 14
-1.342294 -2.6151891 -0.051310074 70 7
-2.1266937 -4.1416545 1.2475078 5 15
-0.63242078 -1.2258177 -0.36959362 8 0
-1.3491416 -2.613914 0.05134498 75 8
-0.72803611 -1.4093368 -0.3662203 7 1
-1.7294077 -3.3463655 0.19741124 56 9
-0.84666204 -1.6375717 -0.35833931 4 2
-1.7483246 -3.3800766 0.33293492 42 10
-0.99987257 -1.9314244 -0.34446874 5 3
-2.3142614 -4.4684806 0.6178776 76 11
-1.2611725 -2.4340885 -0.33660313 8 4
-2.2744877 -4.3879328 0.78279817 11 12
-1.360674 -2.6227655 -0.25850391 85 5
-2.2872314 -4.4068689 0.96511191 31 13
-1.3704395 -2.6393352 -0.15585649 70 6
-2.3275447 -4.4807158 1.1656964 55 14
-1.3633479 -2.6223192 -0.051589314 66 7
-2.1438925 -4.1218929 1.2449197 10 15
-0.63346201 -1.2122164 -0.36648777 7 0
-1.3711473 -2.6227632 0.051659122 73 8
-0.73359835 -1.4020523 -0.3653205 8 1
-1.7432002 -3.3301868 0.19699256 34 9
-0.85522461 -1.6331161 -0.35833931 4 2
-1.771546 -3.3814652 0.3339808 19 10
-1.0191449 -1.9436575 -0.34759742 5 3
-2.3431604 -4.4668498 0.61934006 76 11
-1.2683653 -2.4169054 -0.33514073 8 4
-2.2910037 -4.3637204 0.78060806 7 12
-1.3780948 -2.6226602 -0.25920117 83 5
-2.3066201 -4.3878818 0.9635855 43 13
-1.3842406 -2.6321232 -0.15585649 69 6
-2.3564186 -4.4788146 1.1683958 54 14
-1.3826503 -2.625761 -0.051798742 64 7
-2.1663461 -4.1123195 1.2454373 19 15
-0.6470297 -1.2225428 -0.37062889 8 0
-1.3886039 -2.6226172 0.051798742 73 8
-0.74001682 -1.3964702 -0.36487061 8 1
-1.7437745 -3.2892506 0.19510846 31 9
-0.85732454 -1.616475 -0.35566798 5 2
-1.7929621 -3.3791833 0.33467805 31 10
-1.0311606 -1.9417839 -0.34822315 5 3
-2.3711727 -4.4632845 0.62055874 76 11
-1.2754132 -2.3997135 -0.33367831 8 4
-2.2999103 -4.3255024 0.77591503 1 12
-1.3974245 -2.6259613 -0.26024702 80 5
-2.2889698 -4.2994933 0.94679433 14 13
-1.4017586 -2.6318903 -0.15627518 73 6
-2.3807533 -4.4681354 1.1688457 54 14
-1.4001433 -2.6255434 -0.051938362 62 7
-2.1951227 -4.1145563 1.2495784 23 15
-0.64794636 -1.2089219 -0.36752307 7 0
-1.4108219 -2.6311715 0.052112885 77 8
-0.74062753 -1.3806856 -0.36172128 6 1
-1.7562491 -3.2712765 0.1945851 42 9
-0.86206108 -1.6050454 -0.3541415 5 2
-1.8210047 -3.3890548 0.33659548 15 10
-1.0447172 -1.9434996 -0.34947464 5 3
-2.4021945 -4.4669614 0.62275237 72 11
-1.2879603 -2.3930027 -0.33367831 7 4
-2.2307496 -4.142952 0.74525392 1 12
-1.4125873 -2.6223633 -0.26059568 83 5
-2.4094257 -4.4710507 0.9872458 56 13
-1.4193121 -2.6315465 -0.15669388 71 6
-2.4115183 -4.4693289 1.1724449 52 14
-1.4134148 -2.6184227 -0.051938362 64 7
-2.2195916 -4.1101928 1.251649 27 15
-0.64852995 -1.1954385 -0.36441725 8 0
-1.4279367 -2.6310275 0.052252505 77 8
-0.75876445 -1.3974705 -0.36712012 7 1
-1.7794591 -3.2746301 0.1953178 64 9
-0.87017375 -1.6006616 -0.3541415 5 2
-1.8314713 -3.3675427 0.33537531 18 10
-1.0526524 -1.9347167 -0.34884888 5 3
-2.4314158 -4.4669504 0.62445855 72 11
-1.3095521 -2.4038854 -0.33611569 7 4
-2.2479088 -4.1246705 0.7440024 5 12
-1.4277494 -2.6186786 -0.26094431 83 5
-2.4357858 -4.4656916 0.98877227 64 13
-1.4402698 -2.6383533 -0.15753125 83 6
-2.4425156 -4.4724579 1.176494 54 14
-1.4304841 -2.6182551 -0.052077983 62 7
-2.2422206 -4.1022959 1.2526842 25 15
-0.65829134 -1.1989143 -0.36648777 7 0
-1.4402721 -2.6220136 0.052217599 73 8
-0.77358162 -1.40714 -0.37071934 6 1
-1.7979354 -3.2690816 0.19552715 56 9
-0.88583577 -1.6099973 -0.35719445 5 2
-1.8465706 -3.3547387 0.33502665 19 10
-1.0589558 -1.9222575 -0.34759742 5 3
-2.4624374 -4.4680662 0.62640852 73 11
-1.3178685 -2.3902729 -0.33514073 8 4
-2.2725737 -4.1201582 0.74525392 10 12
-1.4433666 -2.6146555 -0.2612929 83 5
-2.4724216 -4.4769368 0.99411488 78 13
-1.4594001 -2.6415188 -0.15815927 78 6
-2.4726627 -4.4736829 1.1800933 54 14
-1.4519175 -2.6247277 -0.052357223 61 7
-2.2702167 -4.1023312 1.2563076 28 15
-0.67394644 -1.2123358 -0.37166417 7 0
-1.4598124 -2.624922 0.052427031 82 8
-0.7638796 -1.3724205 -0.3626211 6 1
-1.8101698 -3.2508976 0.19500379 57 9
-0.88947642 -1.5967616 -0.35528636 6 2
-1.8679907 -3.3519855 0.33572391 18 10
-1.0670815 -1.9132361 -0.34697169 5 3
-2.4886994 -4.4603128 0.62713969 72 11
-1.3323013 -2.3868062 -0.33562821 8 4
-2.3008571 -4.120276 0.74744397 14 12
-1.4667575 -2.624454 -0.26303601 85 5
-2.4919963 -4.4570761 0.9925884 71 13
-1.4732107 -2.6338413 -0.15815927 78 6
-2.50652 -4.4793816 1.1850421 54 14
-1.4715028 -2.627558 -0.052566648 61 7
-2.3029959 -4.1106133 1.2625194 28 15
-0.67459995 -1.1986892 -0.36855832 7 0
-1.4804041 -2.6294398 0.052671362 77 8
-0.77105498 -1.3684022 -0.3626211 6 1
-1.8359933 -3.2570341 0.19594584 35 9
-0.90264648 -1.6006329 -0.35719445 5 2
-1.8933476 -3.3560412 0.33711842 12 10
-1.0770843 -1.9076228 -0.34697169 5 3
-2.5188534 -4.4593201 0.62884587 72 11
-1.3389204 -2.3694282 -0.33416575 7 4
-2.3214266 -4.1064525 0.74713105 15 12
-1.4863662 -2.6271427 -0.2640819 83 5
-2.5269036 -4.4644704 0.99716789 77 13
-1.4909176 -2.6330438 -0.15857796 77 6
-2.530901 -4.4678912 1.1854922 55 14
-1.4921439 -2.6319945 -0.052810986 59 7
-2.3302064 -4.1085806 1.2656252 28 15
-0.68277955 -1.1984979 -0.36959362 8 0
-1.4991022 -2.6303394 0.052845888 79 8
-0.7840023 -1.3745027 -0.3653205 8 1
-1.8609406 -3.2612541 0.19678321 44 9
-0.90614831 -1.5873598 -0.35528636 5 2
-1.9296664 -3.3789542 0.34043032 16 10
-1.0948999 -1.9156771 -0.34947464 5 3
-2.5559618 -4.4701962 0.63225818 73 11
-1.3532794 -2.3658316 -0.33465323 7 4
-2.3478022 -4.1028137 0.74869543 19 12
-1.5070323 -2.6314266 -0.26530206 78 5
-2.5600052 -4.4682121 1.0009841 77 13
-1.5146159 -2.642529 -0.15962468 77 6
-2.5629838 -4.4697933 1.1895411 57 14
-1.5059048 -2.6241455 -0.052810986 57 7
-2.361305 -4.1130776 1.2708015 29 15
-0.6813249 -1.1815181 -0.3654525 7 0
-1.521847 -2.6380434 0.05316003 84 8
-0.79411179 -1.3754418 -0.36667022 7 1
-1.8769915 -3.2497361 0.19667853 53 9
-0.92328751 -1.5978924 -0.35872093 5 2
-1.9563066 -3.3843286 0.34199914 48 10
-1.1049151 -1.9099181 -0.34947464 5 3
-2.5902712 -4.4756508 0.63493931 75 11
-1.3716166 -2.3690207 -0.33611569 7 4
-2.374202 -4.0990109 0.75025976 19 12
-1.5297823 -2.6390133 -0.26687086 75 5
-2.5941989 -4.4734292 1.0051818 73 13
-1.5354468 -2.6466553 -0.16035739 74 6
-2.5980904 -4.4765382 1.19494 56 14
-1.5216327 -2.619683 -0.052880794 59 7
-2.387661 -4.1090088 1.2733897 32 15
-0.68944973 -1.1812713 -0.36648777 8 0
-1.531606 -2.623131 0.05302041 75 8
-0.80326891 -1.37463 -0.36757001 7 1
-1.8990219 -3.2484846 0.19720189 59 9
-0.92569447 -1.5828677 -0.35643122 4 2
-1.9729936 -3.3723195 0.34182483 60 10
-1.1029226 -1.8836505 -0.3457202 5 3
-2.6196895 -4.4723039 0.63640177 75 11
-1.3860089 -2.365232 -0.33660313 7 4
-2.4096179 -4.1103821 0.75463998 22 12
-1.54862 -2.6395595 -0.26774243 78 5
-1.555351 -2.6489136 -0.16098543 72 6
-2.6313646 -4.4796758 1.199439 56 14
-1.5414091 -2.6220229 -0.053090218 57 7
-2.4169781 -4.1097727 1.2775309 28 15
-0.69955534 -1.1842985 -0.36855832 8 0
-1.5514234 -2.6254056 0.053229842 77 8
