# .PCD v0.7 - Point Cloud Data file format
VERSION 0.7
FIELDS x y z intensity ring
SIZE 4 4 4 4 2
TYPE F F F F U
COUNT 1 1 1 1 1
WIDTH 1249
HEIGHT 1
VIEWPOINT 0 0 0 1 0 0 0
POINTS 1249
DATA ascii
-1.3791844 -2.6347759 -0.15585649 73 6
-2.345103 -4.4781518 1.1670461 54 14
-1.3734354 -2.6215656 -0.051659122 64 7
-2.1541409 -4.1100039 1.2433668 15 15
-0.63927919 -1.2135274 -0.36752307 7 0
-1.3817021 -2.6217403 0.051728934 73 8
-0.73369795 -1.3909935 -0.36307099 8 1
-1.7402524 -3.2978916 0.19542249 41 9
-0.85513622 -1.6198539 -0.3560496 5 2
-1.7855412 -3.3808575 0.33450374 30 10
-1.0181998 -1.9262959 -0.34509447 5 3
-2.3625989 -4.4678288 0.62055874 76 11
-1.2782296 -2.4161954 -0.33562821 8 4
-2.2969787 -4.3382392 0.77747941 3 12
-1.397043 -2.6374426 -0.26111859 82 5
-2.2751946 -4.2934718 0.94450456 16 13
-1.3934194 -2.6272755 -0.15585649 70 6
-2.3747776 -4.4757271 1.1697454 54 14
-1.3932252 -2.6246939 -0.05186855 62 7
-2.1826887 -4.1102328 1.2469902 23 15
-0.64401633 -1.2066424 -0.36648777 8 0
-1.4005759 -2.6230462 0.05190346 75 8
-0.74396849 -1.3921598 -0.36442071 6 1
-1.7543031 -3.2813823 0.19500379 30 9
-0.8657397 -1.6186661 -0.35681283 4 2
-1.8132066 -3.3887146 0.33624685 15 10
-1.0379329 -1.9381725 -0.34822315 5 3
-2.3895507 -4.4602299 0.62128997 75 11
-1.285657 -2.3987463 -0.33416575 8 4
-2.2571206 -4.2095118 0.75651717 1 12
-1.4131765 -2.6333568 -0.26146722 87 5
-2.3791838 -4.4315858 0.9777053 40 13
-1.4128274 -2.6305006 -0.15648453 74 6
-2.402792 -4.4718137 1.1719949 51 14
-1.4130881 -2.6276848 -0.052077983 62 7
-2.2140486 -4.1153755 1.2521666 24 15
-0.65951103 -1.2202488 -0.37166417 8 0
-1.4266551 -2.6385443 0.052357223 88 8
-0.75217533 -1.389959 -0.36487061 8 1
-1.7648047 -3.2598569 0.19427109 57 9
-0.87513793 -1.6158372 -0.35719445 5 2
-1.8337728 -3.3844292 0.33676979 22 10
-1.0499501 -1.9361844 -0.34884888 5 3
-2.4185507 -4.4581265 0.62275237 72 11
-1.2981995 -2.3919816 -0.33416575 7 4
-2.2395422 -4.1247239 0.74337667 5 12
-1.4259944 -2.6241705 -0.2612929 80 5
-2.4079807 -4.4294171 0.97999501 29 13
-1.4323063 -2.6335943 -0.15711255 82 6
-2.433624 -4.4728661 1.1755942 51 14
-1.4287397 -2.6237624 -0.052147791 62 7
-2.2420349 -4.1156015 1.2557901 25 15
-0.65847164 -1.2032216 -0.36752307 8 0
-1.4433321 -2.6362998 0.052461933 86 8
-0.76294529 -1.3929708 -0.36667022 7 1
-1.7924093 -3.2698371 0.19542249 57 9
-0.87792265 -1.6009043 -0.35490477 5 2
-1.8466766 -3.3660474 0.33589822 16 10
-1.0559347 -1.9239187 -0.34759742 5 3
-2.452549 -4.4667091 0.62567729 72 11
-1.31453 -2.3921106 -0.33514073 8 4
-2.2687213 -4.1267896 0.74587959 10 12
-1.4373378 -2.6134279 -0.26094431 83 5
-2.4691725 -4.4876957 0.99564141 73 13
-1.4518563 -2.6365559 -0.15774059 78 6
-2.4617126 -4.4685965 1.1778437 54 14
-1.4439322 -2.6199996 -0.052217599 62 7
-2.2637694 -4.1058927 1.2563076 27 15
-0.66642511 -1.2032533 -0.36855832 7 0
-1.451811 -2.6202152 0.052287407 73 8
-0.76526201 -1.3805695 -0.36442071 6 1
-1.8079674 -3.2589767 0.1953178 59 9
-0.88506138 -1.5947237 -0.35452312 5 2
-1.8520848 -3.3357544 0.33380648 18 10
-1.0618219 -1.911642 -0.34634593 5 3
-2.4847672 -4.4715905 0.62811464 75 11
-1.3266205 -2.3854268 -0.33514073 7 4
-2.2876587 -4.1118016 0.74525392 12 12
-1.4612061 -2.6252689 -0.2628617 87 5
-2.4889894 -4.469995 0.99449658 77 13
-1.4690719 -2.636152 -0.15815927 78 6
-2.4966342 -4.4782062 1.1836925 55 14
-1.4630188 -2.6231363 -0.052427031 61 7
-2.2873466 -4.099443 1.2578605 27 15
-0.67250669 -1.1998649 -0.36855832 7 0
-1.4689664 -2.6198103 0.052427031 82 8
-0.77605355 -1.3834767 -0.3662203 6 1
-1.8263953 -3.253267 0.19552715 34 9
-0.90177435 -1.6056292 -0.35795769 6 2
-1.8796793 -3.3454449 0.33572391 13 10
-1.0676128 -1.8993551 -0.34509447 5 3
-2.5073688 -4.4589562 0.62811464 75 11
-1.3406247 -2.3821411 -0.33562821 7 4
-2.3123181 -4.1070552 0.74650538 15 12
-1.4754527 -2.6195757 -0.26303601 85 5
-2.5115819 -4.4573402 0.99449658 80 13
-1.4843578 -2.6321623 -0.15836863 78 6
-2.5250134 -4.4756961 1.1863918 55 14
-1.4831567 -2.6278882 -0.052671362 59 7
-2.3223138 -4.1130471 1.2656252 29 15
-0.67857134 -1.1964455 -0.36855832 8 0
-1.4901025 -2.6262555 0.052706268 82 8
-0.77919775 -1.3727523 -0.36442071 6 1
-1.8536897 -3.2630839 0.19667853 42 9
-0.90794945 -1.5976309 -0.35719445 5 2
-1.9182525 -3.3739924 0.33955875 13 10
-1.0869786 -1.9110978 -0.34822315 5 3
-2.5348136 -4.4548349 0.62933332 72 11
-1.3487351 -2.3684251 -0.33465323 7 4
-2.3418763 -4.1107469 0.74932122 17 12
-1.4995444 -2.6311154 -0.26495346 78 5
-2.5428615 -4.4599204 0.99793106 77 13
-1.5065699 -2.6402278 -0.15931067 74 6
-2.5514987 -4.4696283 1.1881914 55 14
-1.5023886 -2.6307669 -0.052880794 59 7
-2.352685 -4.1180143 1.2708015 29 15
-0.68695897 -1.1961071 -0.36959362 7 0
-1.5162445 -2.6389616 0.053125124 82 8
-0.78879547 -1.3717576 -0.3653205 8 1
-1.8723131 -3.2547383 0.19678321 39 9
-0.90678746 -1.5756791 -0.3533783 5 2
-1.9523845 -3.3911915 0.34234774 42 10
-1.0936902 -1.8981509 -0.34697169 5 3
-2.5784907 -4.4732852 0.63396436 76 11
-1.3595462 -2.3576539 -0.33416575 7 4
-2.3650701 -4.0997272 0.74963403 19 12
-1.5172049 -2.6278756 -0.26547641 73 5
-2.5795133 -4.4660497 1.0025105 75 13
-1.5268285 -2.6424139 -0.15993871 74 6
-2.5853975 -4.4726295 1.1926905 58 14
-1.5170584 -2.6223347 -0.052880794 59 7
-2.384357 -4.1198578 1.2754604 30 15
-0.68738681 -1.1824729 -0.36648777 7 0
-1.5330576 -2.6361721 0.053229842 77 8
-0.79596704 -1.3676087 -0.3653205 6 1
-1.8893297 -3.24489 0.19678321 60 9
-0.9160133 -1.5726061 -0.35375988 4 2
-1.9671043 -3.3757582 0.34182483 60 10
-1.1115752 -1.9060496 -0.34947464 5 3
-2.6128807 -4.4785843 0.63664556 78 11
-1.3758751 -2.3573608 -0.33514073 7 4
-2.3944721 -4.1009336 0.75213701 22 12
-1.5409955 -2.6370978 -0.26721951 75 5
-2.6048446 -4.4558716 1.0032737 15 13
-1.548709 -2.6481757 -0.16077606 73 6
-2.6196053 -4.4775338 1.1976395 56 14
-1.5368303 -2.6247094 -0.053090218 56 7
-2.4039423 -4.1039834 1.274425 29 15
-0.69552797 -1.1821877 -0.36752307 7 0
-1.5458249 -2.6263855 0.053194933 79 8
-0.79916084 -1.3567058 -0.36352089 8 1
-1.9367133 -3.2865748 0.19992337 42 9
-0.92722613 -1.5728619 -0.35490477 4 2
-1.9877895 -3.3705602 0.34234774 55 10
-1.1114992 -1.8831916 -0.34634593 5 3
-2.6433594 -4.4768076 0.63835168 75 11
-1.3942566 -2.3603795 -0.33660313 7 4
-2.425961 -4.1053467 0.75526565 22 12
-1.5608671 -2.6392827 -0.26826537 75 5
-2.6011484 -4.3965511 0.99297011 10 13
-1.5666225 -2.6469057 -0.16119476 72 6
-2.6479774 -4.4721403 1.1998889 54 14
-1.5556489 -2.6252284 -0.053264745 61 7
-2.4342637 -4.1062965 1.2790838 24 15
-0.70566177 -1.1851693 -0.36959362 8 0
-1.5636485 -2.625128 0.053334557 79 8
-0.80824918 -1.3558507 -0.36442071 8 1
-2.0019751 -3.3570125 0.20484295 66 9
-0.93947208 -1.5747294 -0.35643122 4 2
-2.0105157 -3.3686607 0.34321931 64 10
-1.1193182 -1.8739543 -0.3457202 5 3
-2.6698191 -4.4680171 0.63908291 72 11
-1.4025222 -2.3462317 -0.33562821 7 4
-2.460603 -4.1146283 0.75933295 22 12
-1.5818269 -2.6430414 -0.26948556 71 5
-2.6745574 -4.4670925 1.012051 57 13
-1.5784082 -2.6352396 -0.16098543 72 6
-2.6833775 -4.4782734 1.2052878 55 14
-1.5796579 -2.6341965 -0.053613789 61 7
-2.4676571 -4.1133733 1.2852954 13 15
-0.71185756 -1.1814582 -0.36959362 8 0
-1.5866625 -2.6323183 0.053648699 75 8
-0.81510127 -1.3517425 -0.36442071 8 1
-2.0174613 -3.3430636 0.20463361 67 9
-0.94466043 -1.5647467 -0.35528636 5 2
-2.0363669 -3.3717308 0.34461379 63 10
-1.1369613 -1.8817906 -0.34822315 5 3
-2.7003667 -4.4658685 0.64078909 75 11
-1.4086233 -2.3286643 -0.33416575 7 4
-2.4913182 -4.1168981 0.7621488 20 12
-1.6013755 -2.6452272 -0.27053142 71 5
-1.5983956 -2.6371872 -0.16161345 74 6
-2.7128506 -4.4741607 1.2079872 55 14
-1.5991929 -2.636426 -0.053823221 61 7
-2.4974649 -4.1156955 1.2899542 9 15
-0.71602243 -1.1744159 -0.36855832 8 0
-1.6129191 -2.6444607 0.054067552 77 8
-0.82521302 -1.3524466 -0.3657704 7 1
-2.0364363 -3.3362198 0.20484295 71 9
-0.95052201 -1.556594 -0.35452312 5 2
-2.056071 -3.3644223 0.34496242 63 10
-1.1529808 -1.885924 -0.35010037 5 3
-2.7343283 -4.4707713 0.64347017 72 11
-1.4224637 -2.3248916 -0.33465323 7 4
-2.5128398 -4.1037974 0.7621488 20 12
-1.6204072 -2.6453011 -0.27140298 69 5
-1.6200738 -2.6426854 -0.16245082 74 6
-2.7436116 -4.4736619 1.2115864 55 14
-1.6129755 -2.6280162 -0.053823221 62 7
-2.5210016 -4.105855 1.2909895 9 15
-0.71181792 -1.1543331 -0.36338195 7 0
-1.626283 -2.6362634 0.054067552 75 8
-0.83535409 -1.3530819 -0.36712012 6 1
-2.0643723 -3.342504 0.20588967 70 9
-0.95762736 -1.5499259 -0.3541415 5 2
-2.0772634 -3.3607521 0.34565967 25 10
-1.1566044 -1.8697816 -0.34822315 5 3
-2.7702343 -4.4766502 0.64639509 70 11
-1.4335722 -2.3157241 -0.33440951 6 4
-2.5460591 -4.1111794 0.76590323 20 12
-1.6331867 -2.6350868 -0.27122867 68 5
-1.6402057 -2.6443501 -0.16307886 73 6
-2.7770257 -4.4736538 1.2156355 54 14
-1.6351531 -2.6331253 -0.054102462 62 7
-2.5424657 -4.0925984 1.2909895 7 15
-0.72009861 -1.1537427 -0.36441725 7 0
-1.6405225 -2.6274259 0.054067552 75 8
-0.84242725 -1.3486896 -0.36712012 6 1
-2.0881958 -3.3418114 0.2065177 70 9
-0.97016281 -1.5513803 -0.35566798 5 2
-2.1197205 -3.3883123 0.34966883 11 10
-1.1621872 -1.8570019 -0.34697169 5 3
-2.7999561 -4.4721794 0.64785749 70 11
-1.4502966 -2.3146622 -0.33538446 6 4
-2.5745606 -4.1073856 0.76778048 16 12
-1.655429 -2.6400034 -0.27262318 62 5
-2.528888 -4.0313931 0.92504203 1 13
-1.6597984 -2.6438949 -0.16360222 70 6
-2.8118129 -4.4772043 1.2205844 55 14
-1.6553003 -2.6346872 -0.05431189 62 7
-2.5697124 -4.0869594 1.2935777 7 15
-0.73850703 -1.1695578 -0.37062889 7 0
-1.6628013 -2.6323249 0.054346792 70 8
-0.84323144 -1.3343759 -0.36442071 6 1
-2.1030436 -3.3254006 0.2062037 68 9
-0.98142165 -1.5512564 -0.35681283 6 2
-2.5977371 -4.1044536 0.4249714 5 10
-1.1634406 -1.8375396 -0.34446874 5 3
-2.8272998 -4.4619942 0.64858866 67 11
-1.4613334 -2.3053603 -0.33514073 6 4
-2.6108418 -4.1172051 0.77216065 18 12
-1.6766999 -2.6430762 -0.27384335 61 5
-2.5506625 -4.0176516 0.92504203 1 13
-1.6757604 -2.63854 -0.16381156 68 6
-2.8456676 -4.4788685 1.2250834 52 14
-1.6755085 -2.6361101 -0.054521319 64 7
-2.5893285 -4.0722709 1.2930601 6 15
-0.7435807 -1.1640471 -0.37011126 7 0
-1.6884058 -2.6421182 0.054730747 72 8
-0.846008 -1.3233749 -0.3626211 6 1
-2.1241519 -3.321444 0.20662238 57 9
-0.99243468 -1.5512304 -0.35795769 5 2
-2.6417525 -4.1260328 0.42863193 7 10
-1.1815693 -1.8447301 -0.34697169 5 3
-2.8573442 -4.4593272 0.6502949 69 11
-1.4708403 -2.2945919 -0.33465323 7 4
-2.6387637 -4.1134539 0.77403784 18 12
-1.7002004 -2.6493523 -0.27541214 62 5
-2.5709646 -4.0046902 0.92504203 1 13
-1.6934112 -2.6367464 -0.16423026 66 6
-2.8693533 -4.4660487 1.2255334 50 14
-1.6979403 -2.6407568 -0.054800555 64 7
-2.607481 -4.0537829 1.2915071 6 15
-0.75260741 -1.1651369 -0.37166417 7 0
-1.7071832 -2.6419363 0.054905269 68 8
-0.85927474 -1.3287452 -0.3653205 6 1
-2.1501923 -3.3236923 0.20745975 41 9
-0.99414301 -1.5361238 -0.35566798 6 2
-2.8997362 -4.4788799 0.46680617 18 10
-1.199805 -1.8517809 -0.34947464 5 3
-2.894691 -4.46596 0.65346348 72 11
-1.480675 -2.2835279 -0.33416575 7 4
-2.6649234 -4.1083322 0.77560216 15 12
-1.7194737 -2.6487691 -0.27628368 64 5
-2.5598204 -3.9417775 0.91359347 9 13
-1.7224268 -2.6512916 -0.16569565 65 6
-2.9107511 -4.4787407 1.2331817 54 14
-1.7117438 -2.6318302 -0.054800555 64 7
-2.5854735 -3.9736845 1.2702839 4 15
-0.75447088 -1.1547115 -0.36959362 7 0
-1.7319342 -2.6496997 0.055254318 70 8
-0.87048721 -1.3307514 -0.36712012 5 1
-2.1774087 -3.3274288 0.2084018 50 9
-0.99679631 -1.5226842 -0.35375988 6 2
-2.9373372 -4.4853039 0.46907222 38 10
-1.2073191 -1.8421688 -0.34884888 5 3
-2.9289186 -4.4673433 0.6559009 63 11
-1.4991432 -2.2857034 -0.33562821 7 4
-2.6907332 -4.1009278 0.77685362 15 12
-1.7333188 -2.63973 -0.27628368 64 5
-2.6644981 -4.0563111 0.94335973 14 13
-1.7417692 -2.6505826 -0.16621901 64 6
-2.9405842 -4.4732089 1.2358811 54 14
-1.7320948 -2.6328554 -0.055009987 64 7
-2.5573905 -3.8858616 1.2464726 9 15
-0.76263702 -1.1539685 -0.37062889 7 0
-1.7413727 -2.6339228 0.055114701 70 8
-0.87314212 -1.3196743 -0.3653205 5 1
-2.2113361 -3.340965 0.20997187 61 9
-1.0145102 -1.5321769 -0.35719445 5 2
-2.9706838 -4.4848123 0.47064099 46 10
-1.2038507 -1.8160644 -0.34509447 5 3
-2.7734432 -4.182282 0.61617148 10 11
-1.5067008 -2.2712059 -0.33465323 7 4
-2.7045224 -4.0752621 0.77466357 11 12
-1.7548324 -2.6422362 -0.27750388 68 5
-2.6943924 -4.0553856 0.94641262 11 13
-1.7622575 -2.6514063 -0.16684705 61 6
-2.9812288 -4.4837155 1.2430795 56 14
-1.7569348 -2.640398 -0.055359036 60 7
-2.5744896 -3.8675935 1.2449197 20 15
-0.76759505 -1.1483535 -0.37011126 7 0
-1.7551398 -2.6247692 0.055114701 70 8
-0.87353736 -1.305367 -0.3626211 6 1
-2.2410209 -3.3475978 0.21112327 69 9
-1.0203336 -1.5235813 -0.35643122 6 2
-2.8388751 -4.2374597 0.44623742 30 10
-1.2221433 -1.8228623 -0.34759742 5 3
-2.808573 -4.1874862 0.61909634 100 11
-1.5207846 -2.2665825 -0.33514073 7 4
-2.6751816 -3.9855983 0.76027155 13 12
-1.7775309 -2.6462426 -0.27889836 66 5
-2.6247041 -3.9059718 0.91473836 14 13
-1.7794585 -2.6471157 -0.16716106 63 6
-3.0155399 -4.4842153 1.2475786 56 14
-1.7774342 -2.6411166 -0.055568464 62 7
-2.6001 -3.8620729 1.2475078 27 15
-0.77359742 -1.1443186 -0.37011126 7 0
-1.7811819 -2.6337638 0.055498652 67 8
-0.88254458 -1.304003 -0.36352089 6 1
-2.2674763 -3.3490484 0.21196064 76 9
-1.0338022 -1.5263455 -0.35833931 6 2
-3.0353665 -4.4798484 0.47342998 46 10
-1.229454 -1.813168 -0.34697169 5 3
-1.5326313 -2.2585888 -0.33514073 7 4
-2.6471975 -3.8996236 0.74650538 12 12
-1.8003188 -2.650084 -0.28029287 68 5
-2.6418087 -3.8873043 0.91359347 9 13
-1.7944171 -2.6394141 -0.16726573 61 6
-3.0433612 -4.4748101 1.2493782 56 14
-1.7979895 -2.6416929 -0.055777889 60 7
-2.6365955 -3.8723583 1.2552725 29 15
-0.7784881 -1.1386576 -0.36959362 7 0
-1.8107523 -2.6475098 0.055987321 67 8
-0.88936013 -1.2993642 -0.36352089 6 1
-2.2725685 -3.3190026 0.21080926 73 9
-1.0329041 -1.5079539 -0.35528636 5 2
-3.0666645 -4.475399 0.47465014 38 10
-1.241165 -1.8099643 -0.34759742 6 3
-2.8511457 -4.156209 0.61885256 1 11
-1.5376966 -2.2407126 -0.33367831 8 4
-2.6563988 -3.8694241 0.74337667 15 12
-1.8209392 -2.6504745 -0.28133872 68 5
-2.662127 -3.8734181 0.91359347 19 13
-1.8172647 -2.6431489 -0.16810311 59 6
-3.0822096 -4.4812927 1.2556767 57 14
-1.8151984 -2.6371837 -0.055882607 59 7
-2.661217 -3.8648646 1.2573429 29 15
-0.78224194 -1.1313878 -0.36855832 7 0
-1.8371023 -2.6560836 0.056371275 65 8
-0.90058762 -1.3010992 -0.3653205 6 1
-2.2921891 -3.3103423 0.21101859 73 9
-1.046375 -1.5105945 -0.35719445 5 2
-2.8914657 -4.1726952 0.44414565 1 10
-1.2551279 -1.8099334 -0.34884888 6 3
-2.8457134 -4.1020784 0.61300284 1 11
-1.5494076 -2.2326307 -0.33367831 7 4
-2.6800029 -3.8603299 0.74431533 21 12
-1.8393396 -2.6474483 -0.28203598 71 5
-3.103663 -4.4655857 1.0570819 45 13
-1.8424809 -2.6499956 -0.16914983 59 6
-3.1189849 -4.4842906 1.2610756 54 14
-1.8312662 -2.6309257 -0.055952415 57 7
-2.6913519 -3.8651464 1.2620018 30 15
-0.78594136 -1.1241099 -0.36752307 7 0
-1.8486916 -2.6431506 0.056301463 65 8
-0.90738803 -1.2963657 -0.3653205 8 1
-2.3163643 -3.3081107 0.21164663 73 9
-1.0475118 -1.495447 -0.35490477 5 2
-2.7326241 -3.8996935 0.41660443 49 10
-1.2543799 -1.7887808 -0.3460331 6 3
-2.8329518 -4.0383692 0.60569072 1 11
-1.5679187 -2.2342367 -0.33514073 7 4
-2.7137983 -3.8656456 0.7480697 29 12
-1.8623388 -2.6508238 -0.28343046 68 5
-3.1360328 -4.4621239 1.0601349 13 13
-1.8666693 -2.6550169 -0.17009188 58 6
-3.1536324 -4.4838381 1.2655747 55 14
-1.856526 -2.6376536 -0.056301463 56 7
-2.7171133 -3.8588996 1.2645899 31 15
-0.79404682 -1.1231343 -0.36855832 7 0
-1.8717436 -2.6464956 0.0565807 65 8
-0.90515667 -1.2788719 -0.36172128 6 1
-2.3324997 -3.2943075 0.21154197 69 9
-1.0621364 -1.4995542 -0.35719445 5 2
-3.1849616 -4.4949555 0.48197123 36 10
-1.2614434 -1.778966 -0.34540737 6 3
-2.7529881 -3.8809993 0.58424169 8 11
-1.5772976 -2.2227588 -0.33465323 7 4
-2.7385752 -3.8578269 0.74932122 21 12
-1.8854244 -2.6540301 -0.28482497 71 5
-3.1661763 -4.4552445 1.0624245 11 13
-1.8782305 -2.6419511 -0.16988252 58 6
-3.1872315 -4.4815564 1.2696238 45 14
-1.8842255 -2.6474478 -0.056720324 55 7
-2.7507274 -3.8635044 1.2708015 31 15
-0.79991651 -1.1189613 -0.36855832 7 0
-1.897207 -2.6529248 0.056929749 65 8
-0.92091328 -1.2867928 -0.3653205 6 1
-2.3520412 -3.2852972 0.2117513 42 9
-1.0676874 -1.4907798 -0.35643122 5 2
-3.2072928 -4.4765983 0.48179695 36 10
-1.2741939 -1.7771524 -0.34634593 5 3
-2.7952533 -3.8971803 0.58887273 4 11
-1.5819706 -2.2047925 -0.33319083 7 4
-2.7702568 -3.8594825 0.75244987 22 12
-1.91208 -2.6619222 -0.28674239 73 5
-3.1516552 -4.3859925 1.0498312 5 13
-1.9001988 -2.6434329 -0.17061524 60 6
-3.1731081 -4.4125962 1.254777 10 14
-1.9027342 -2.6440377 -0.05685994 64 7
-2.78672 -3.8709986 1.2780485 31 15
-0.80802804 -1.1178889 -0.36959362 8 0
-1.9204451 -2.6559184 0.057208989 64 8
-0.92535371 -1.2787957 -0.36442071 6 1
-2.3809218 -3.2891159 0.21279801 27 9
-1.0697209 -1.4772185 -0.35452312 6 2
-2.8344502 -3.9127631 0.42270535 35 10
-1.2904379 -1.7800524 -0.34822315 5 3
-2.8156214 -3.8824904 0.58887273 27 11
-1.5981563 -2.2029059 -0.33416575 7 4
-2.7962277 -3.8529181 0.75401419 24 12
-1.9259919 -2.6518738 -0.28674239 69 5
-3.0234065 -4.1613626 0.99983919 12 13
-1.9234074 -2.6463721 -0.17145261 60 6
-3.2145042 -4.4211402 1.2619754 18 14
-1.9212581 -2.640507 -0.05699956 61 7
-2.816045 -3.8688498 1.2821896 21 15
-0.8093105 -1.1074039 -0.36752307 7 0
-1.9402266 -2.6538978 0.057383511 63 8
-0.93663931 -1.2802241 -0.3662203 6 1
-2.8333812 -3.871325 0.25142196 16 9
-1.0774407 -1.4715973 -0.35452312 6 2
-2.9290667 -3.9991326 0.43368697 16 10
-1.3032438 -1.7780511 -0.34916177 6 3
-2.9157298 -3.9765542 0.60544699 13 11
-1.614365 -2.2009108 -0.33514073 6 4
-2.8280489 -3.8541508 0.7571429 24 12
-1.9481057 -2.6529944 -0.28796256 66 5
-3.2834191 -4.4698348 1.0780709 15 13
-1.9561601 -2.6620162 -0.17312735 67 6
-3.2918589 -4.478045 1.2831209 50 14
-1.939797 -2.6368542 -0.057139181 64 7
-3.2484784 -4.4141884 1.4685394 50 15
-0.81739372 -1.1062587 -0.36855832 8 0
-1.9576612 -2.6485269 0.057488225 64 8
-0.94217068 -1.2737358 -0.3657704 7 1
-2.8678684 -3.8757024 0.25267801 27 9
-1.0898033 -1.4722476 -0.3560496 6 2
-3.2025151 -4.3247938 0.47081533 42 10
-1.3078315 -1.7648546 -0.34791031 6 3
-2.9731579 -4.0106688 0.61300284 9 11
-1.6258671 -2.1924276 -0.33514073 7 4
-2.8658452 -3.8630872 0.76183593 22 12
-1.967908 -2.6507566 -0.28883412 61 5
-3.324337 -4.4762235 1.0837952 67 13
-1.9724541 -2.6549435 -0.17333671 61 6
-3.3350217 -4.4873371 1.2907692 49 14
-1.9678978 -2.6459157 -0.057558037 64 7
-3.3211324 -4.4637656 1.4907978 66 15
-0.82086241 -1.0988684 -0.36752307 8 0
-1.9786841 -2.6478517 0.057697657 64 8
-0.94532597 -1.2641031 -0.36442071 6 1
-2.8988895 -3.8750269 0.25362006 30 9
-1.0998499 -1.4696648 -0.35681283 6 2
-3.358849 -4.4866004 0.49033821 89 10
-1.3135011 -1.75324 -0.34697169 5 3
-2.975069 -3.96963 0.60910302 1 11
-1.6397057 -2.1870613 -0.33562821 7 4
-2.8978846 -3.863832 0.76496464 26 12
-1.9901319 -2.6515708 -0.29005429 58 5
-3.3630524 -4.479166 1.0887562 100 13
-1.9935247 -2.6541612 -0.17396474 67 6
-3.3654945 -4.4791617 1.2934686 75 14
-1.9937425 -2.6515586 -0.057907082 61 7
-3.366523 -4.4756489 1.5006329 98 15
-0.83126205 -1.1007218 -0.36959362 8 0
-2.0021646 -2.6502192 0.057976898 64 8
-0.94466221 -1.2499741 -0.36172128 6 1
-2.927573 -3.8709457 0.25435278 32 9
-1.1087145 -1.4654517 -0.35719445 5 2
-3.4039371 -4.4975481 0.49347579 61 10
-1.32832 -1.754444 -0.34853604 6 3
-2.9886198 -3.9445047 0.60764056 2 11
-1.646338 -2.1721177 -0.33465323 7 4
-2.9359777 -3.8722172 0.76965761 22 12
-2.0167716 -2.6589258 -0.29197174 61 5
-3.3840845 -4.4583683 1.0879929 71 13
-2.0110183 -2.6484585 -0.17427875 70 6
-3.3806496 -4.4506159 1.2903192 49 14
-2.0192358 -2.6573553 -0.058256131 63 7
-3.3867955 -4.4554753 1.4995975 69 15
-0.83232468 -1.0902121 -0.36752307 8 0
-2.0281508 -2.655592 0.058325943 72 8
-0.95119405 -1.2450109 -0.36172128 6 1
-2.4789834 -3.2435496 0.21394941 12 9
-1.1041931 -1.444225 -0.3533783 6 2
-3.4092791 -4.4559288 0.49086115 8 10
-1.3326857 -1.74119 -0.34728456 6 3
-1.6500684 -2.1543016 -0.33319083 7 4
-2.9598172 -3.861495 0.77059627 22 12
-2.0367274 -2.6562355 -0.29284328 62 5
-3.3886845 -4.4178157 1.0822687 60 13
-2.0316925 -2.6477532 -0.17490679 76 6
-3.3841484 -4.4087143 1.2831209 51 14
-2.0282497 -2.6404028 -0.058116514 64 7
-3.3865354 -4.4070449 1.4892448 64 15
-0.83547181 -1.0829264 -0.36648777 8 0
-2.0525615 -2.6595402 0.058640085 75 8
-0.96722937 -1.2523516 -0.3653205 6 1
-2.5057011 -3.2431691 0.21478678 55 9
-1.1081383 -1.4337634 -0.35223341 6 2
-3.4001043 -4.3976336 0.48632905 56 10
-1.3454106 -1.7388753 -0.34822315 5 3
-1.6710485 -2.1581891 -0.33514073 8 4
-2.9865825 -3.8558342 0.77247345 22 12
-2.0518286 -2.647109 -0.2930176 61 5
-3.3877094 -4.3689833 1.0746363 60 13
-2.0626659 -2.6591733 -0.17637219 76 6
-3.3856814 -4.3632221 1.2750225 51 14
-2.0469527 -2.6360645 -0.058256131 61 7
-3.3787506 -4.3495865 1.4757862 64 15
-0.84350681 -1.0815836 -0.36752307 8 0
-2.0652292 -2.6471796 0.058605183 72 8
-0.9737733 -1.2472701 -0.3653205 6 1
-2.5337126 -3.2441711 0.21572883 36 9
-1.1277171 -1.4434122 -0.3560496 5 2
-3.3911831 -4.3389559 0.48179695 44 10
-1.342327 -1.7162473 -0.34509447 5 3
-3.0764401 -3.932003 0.61300284 1 11
-1.6872201 -2.1556623 -0.33611569 7 4
-3.0201256 -3.8572528 0.77591503 20 12
-2.0779495 -2.6520123 -0.29476073 64 5
-3.3851042 -4.318737 1.0666224 58 13
-2.0864198 -2.6609106 -0.17720957 76 6
-3.3916435 -4.3239679 1.268724 48 14
-2.0829515 -2.6536245 -0.05888442 64 7
-3.2058139 -4.0826526 1.3908936 26 15
-0.84676629 -1.074118 -0.36648777 8 0
-2.0914438 -2.6520319 0.058954231 72 8
-0.97787601 -1.239095 -0.36442071 6 1
-3.060549 -3.876719 0.25885364 29 9
-1.1316093 -1.4328654 -0.35490477 5 2
-3.3953283 -4.2976899 0.47918224 40 10
-1.3635461 -1.724691 -0.34822315 5 3
-3.0674317 -3.8784733 0.60715312 2 11
-1.6910931 -2.1374583 -0.33465323 7 4
-3.0586703 -3.8646202 0.78060806 18 12
-2.105413 -2.6582766 -0.29667813 68 5
-3.3820682 -4.2686381 1.0586084 54 13
-2.1003234 -2.6499498 -0.17720957 78 6
-3.3936543 -4.2801914 1.2610756 46 14
-2.109246 -2.6583471 -0.059233464 66 7
-3.1718991 -3.9962065 1.3670822 27 15
-0.8620103 -1.0817562 -0.37062889 8 0
-2.1190121 -2.6582451 0.059338182 75 8
-0.97948962 -1.2278641 -0.3626211 8 1
-3.0857887 -3.8668859 0.25927237 29 9
-1.1476694 -1.4376613 -0.35757607 5 2
-3.1169107 -3.9030886 0.4369989 54 10
-1.3688576 -1.712899 -0.34728456 6 3
-3.3591571 -4.2019234 0.66053188 16 11
-1.7022614 -2.1285746 -0.33465323 7 4
-3.0912035 -3.8639777 0.78373677 22 12
-2.1330004 -2.664325 -0.29859558 69 5
-3.4031446 -4.2493386 1.0582268 69 13
-2.1304042 -2.6591794 -0.1785703 72 6
-3.4001758 -4.2425957 1.255227 51 14
-2.1281412 -2.6535063 -0.059373088 63 7
-3.1710186 -3.9524209 1.3577647 24 15
-0.86766219 -1.0772282 -0.37062889 8 0
-2.1454482 -2.6626847 0.059687231 78 8
-0.99547529 -1.2350286 -0.3662203 6 1
-3.1160252 -3.8631117 0.26010972 26 9
-1.1502502 -1.4255208 -0.3560496 5 2
-3.4413986 -4.2634497 0.47935659 46 10
-1.3787512 -1.7074853 -0.34759742 5 3
-3.423532 -4.2367744 0.66881901 45 11
-1.7133836 -2.1196322 -0.33465323 7 4
-3.1039398 -3.8385231 0.78185952 22 12
-2.1552293 -2.6643381 -0.29981574 68 5
-3.4414051 -4.2512989 1.0631877 71 13
-2.1543536 -2.6604056 -0.17940767 66 6
-3.4370623 -4.2429051 1.2606257 51 14
-2.1415448 -2.6427004 -0.059373088 66 7
-3.1751688 -3.916811 1.3510355 22 15
-0.86841208 -1.0666777 -0.36855832 7 0
-2.1593604 -2.6514146 0.059687231 75 8
-0.99946636 -1.2267779 -0.3653205 6 1
-3.1481555 -3.8627727 0.26115644 14 9
-1.1512481 -1.4120723 -0.3541415 5 2
-3.4611554 -4.2422843 0.47900796 64 10
-1.3976651 -1.7124856 -0.35010037 5 3
-3.4524648 -4.2286186 0.67028147 37 11
-1.7240899 -2.1109331 -0.33465323 7 4
-3.1214952 -3.8191597 0.78123385 28 12
-2.1691506 -2.6530168 -0.29981574 62 5
-3.3062668 -4.0423465 1.0151039 15 13
-2.1779094 -2.661834 -0.18024506 66 6
-3.1968236 -3.905755 1.1652465 11 14
-2.1680229 -2.6469219 -0.059722137 63 7
-3.17237 -3.8717406 1.3412004 24 15
-0.86398214 -1.0503329 -0.36441725 8 0
-2.1867294 -2.6574368 0.060071182 71 8
-1.0108314 -1.2275451 -0.36712012 6 1
-3.1784964 -3.8585689 0.26199383 14 9
-1.169862 -1.4196613 -0.35757607 6 2
-3.2012396 -3.8834136 0.44031078 24 10
-1.391528 -1.6868583 -0.34634593 5 3
-3.1801689 -3.85374 0.61349034 27 11
-1.7401738 -2.1080005 -0.33562821 7 4
-3.1483328 -3.8124497 0.78311098 20 12
-2.2045875 -2.6677325 -0.30277905 73 5
-3.179781 -3.8464277 0.97007298 26 13
-2.2019997 -2.6627069 -0.18108243 66 6
-3.1831203 -3.846365 1.1526492 26 14
-2.197155 -2.6540177 -0.060140993 63 7
-3.1753478 -3.8342476 1.3339534 31 15
-0.88447577 -1.0634664 -0.37062889 7 0
-2.2215385 -2.6701627 0.060629662 61 8
-0.9997921 -1.2012661 -0.36082149 6 1
-3.2063246 -3.8510826 0.26262185 30 9
-1.1724994 -1.4072775 -0.3560496 5 2
-3.2222035 -3.8660364 0.44031078 31 10
-1.4054011 -1.6856182 -0.34759742 5 3
-3.1964889 -3.832463 0.61275911 33 11
-1.751554 -2.0985541 -0.33562821 7 4
-3.2068956 -3.8408504 0.79249716 22 12
-2.2389612 -2.680619 -0.30556804 69 5
-3.2049117 -3.8357525 0.9715994 29 13
-2.2368722 -2.6752696 -0.18275717 67 6
-3.2132192 -3.8416035 1.1562485 27 14
-2.2392523 -2.6762178 -0.060908899 61 7
-3.2196114 -3.8451529 1.3437886 30 15
-0.89003187 -1.0588208 -0.37062889 8 0
-2.243211 -2.6676767 0.060839087 72 8
-1.0110859 -1.20198 -0.3626211 6 1
-3.2605548 -3.8734059 0.26534331 42 9
-1.1874392 -1.4101295 -0.35833931 4 2
-3.5479009 -4.2117763 0.48179695 50 10
-1.4154805 -1.6797471 -0.34791031 6 3
-3.5806129 -4.2460957 0.68198091 64 11
-1.7522781 -2.0772159 -0.33367831 7 4
-3.5811255 -4.2436953 0.87947464 59 12
-2.2645335 -2.6825607 -0.30713683 66 5
-3.5904965 -4.2502828 1.0815054 67 13
-2.263741 -2.6787753 -0.18380389 68 6
-3.5918434 -4.2488699 1.2844704 52 14
-2.260982 -2.6736174 -0.061118327 71 7
-3.5983694 -4.2535758 1.4928683 59 15
-0.89056033 -1.0482571 -0.36855832 7 0
-2.2700987 -2.6711321 0.061188139 68 8
-1.014841 -1.1937001 -0.36172128 6 1
-3.2943511 -3.8735893 0.26649469 60 9
-1.1792955 -1.3861574 -0.35375988 5 2
-3.6306093 -4.2644429 0.48998958 65 10
-1.4255371 -1.6738163 -0.34822315 5 3
-3.616219 -4.2445402 0.68466198 72 11
-1.7653449 -2.0713415 -0.33416575 8 4
-3.6161137 -4.2399173 0.88260335 61 12
-2.2824275 -2.6752143 -0.30765978 64 5
-3.632355 -4.2559485 1.0876113 67 13
-2.2863476 -2.6779168 -0.18453661 70 6
-3.6284909 -4.2484169 1.2898693 49 14
-2.2749505 -2.6617417 -0.061118327 70 7
-3.6318903 -4.2478919 1.497527 65 15
-0.89082193 -1.0378724 -0.36648777 7 0
-2.2914045 -2.6687117 0.061397567 72 8
-1.0413973 -1.2120191 -0.36891973 6 1
-3.3158896 -3.8578022 0.26659939 27 9
-1.1980569 -1.3933614 -0.35719445 5 2
-3.6560445 -4.2505436 0.49051252 68 10
-1.436859 -1.6693237 -0.34884888 6 3
-3.6604145 -4.2511201 0.68880558 76 11
-1.7813476 -2.0680869 -0.33514073 7 4
-3.6594489 -4.2469997 0.88792211 59 12
-2.3081136 -2.6768067 -0.30922857 66 5
-3.6661301 -4.2502513 1.091046 65 13
-2.3094716 -2.6764934 -0.18526931 68 6
-3.6672399 -4.2485371 1.2957181 51 14
-2.2993128 -2.661901 -0.061397567 68 7
-3.6641872 -4.2405105 1.5016681 67 15
-0.8911804 -1.0273566 -0.36441725 8 0
-2.3092785 -2.6612079 0.061502282 70 8
-1.0375073 -1.1947787 -0.3653205 6 1
-3.7054062 -4.2655888 0.29611689 73 9
-1.2014726 -1.3826236 -0.3560496 6 2
-3.7070067 -4.2644238 0.49434736 74 10
-1.432615 -1.6468732 -0.3457202 5 3
-3.7008662 -4.252861 0.69221795 70 11
-1.7947588 -2.0617256 -0.33562821 7 4
-3.6997983 -4.2486362 0.89230233 59 12
-2.3286417 -2.6721959 -0.31010011 69 5
-3.6986549 -4.242836 1.0940988 65 13
-2.3300173 -2.671891 -0.18579267 65 6
-3.7137735 -4.2571802 1.3042662 49 14
-2.3263693 -2.6648898 -0.061746612 71 7
-3.7028582 -4.2401843 1.5083975 70 15
-0.90418828 -1.0313925 -0.36752307 7 0
-2.3390026 -2.6671216 0.061921138 70 8
-1.030895 -1.1746827 -0.36082149 6 1
-3.5076385 -3.9954741 0.27863666 34 9
-1.2151729 -1.3836898 -0.35795769 6 2
-3.750325 -4.2689047 0.49713635 70 10
-1.4386094 -1.6363831 -0.34509447 6 3
-3.7309494 -4.2423687 0.69368041 72 11
-1.8029072 -2.049319 -0.33514073 7 4
-3.7415676 -4.2514505 0.89699531 53 12
-2.3597202 -2.679404 -0.31236616 71 5
-3.7389874 -4.2440367 1.0994414 69 13
-2.3532193 -2.6701429 -0.18652536 66 6
-3.7489011 -4.2522936 1.3087653 49 14
-2.3561666 -2.6706667 -0.062165473 70 7
-3.7429063 -4.2410159 1.5156444 77 15
-0.91213834 -1.029536 -0.36855832 7 0
-2.3661993 -2.6698031 0.062270187 70 8
-1.0318588 -1.1634375 -0.35902187 6 1
-3.5033264 -3.9486663 0.2766479 56 9
-1.2197951 -1.3743713 -0.35719445 5 2
-3.7858517 -4.2641096 0.49887949 74 10
-1.4629023 -1.6465485 -0.34884888 6 3
-3.7689347 -4.240581 0.69660521 69 11
-1.8083364 -2.0339167 -0.33416575 7 4
-3.778218 -4.2480373 0.90043688 57 12
-2.3909371 -2.6863599 -0.31463224 73 5
-3.7833521 -4.2493277 1.105929 71 13
-2.376467 -2.6682248 -0.18725806 65 6
-3.7814848 -4.2442465 1.3123645 49 14
-2.3820951 -2.671726 -0.062479615 75 7
-3.7856348 -4.2444277 1.5239266 82 15
-0.9226712 -1.0305028 -0.37062889 7 0
-2.4028258 -2.6827004 0.062863566 71 8
-1.0457407 -1.1667255 -0.36172128 8 1
-3.4986193 -3.9020164 0.27465913 60 9
-1.2204201 -1.3606583 -0.35528636 6 2
-3.8320775 -4.2709208 0.50201708 72 10
-1.4635849 -1.6300474 -0.34697169 6 3
-3.8070052 -4.2385106 0.69953007 72 11
-1.8242686 -2.0303266 -0.33514073 7 4
-3.8215365 -4.2517028 0.90544277 63 12
-2.4142969 -2.6841729 -0.3158524 71 5
-3.8318126 -4.2586489 1.1135614 71 13
-2.411783 -2.6794975 -0.18893282 63 6
-3.8219123 -4.2446632 1.3186631 54 14
-2.3947129 -2.6577315 -0.062444709 71 7
-3.8285015 -4.2475066 1.5322088 79 15
-0.91768485 -1.0141978 -0.36648777 7 0
-2.4248915 -2.6789777 0.063072994 68 8
-1.0596848 -1.1699001 -0.36442071 8 1
-3.5069327 -3.8703229 0.27371708 61 9
-1.2288464 -1.3557038 -0.35566798 5 2
-3.8650939 -4.2626057 0.50341159 72 10
-1.4787371 -1.6296761 -0.34853604 6 3
-3.8625002 -4.2552662 0.70562357 75 11
-1.8322046 -2.0178082 -0.33465323 6 4
-3.8583567 -4.2477193 0.90888435 65 12
-2.4309983 -2.674444 -0.31620103 71 5
-3.8699083 -4.2559571 1.1181407 71 13
-2.4365315 -2.6786523 -0.18977019 63 6
-3.8663802 -4.2490969 1.3263115 56 14
-2.4274445 -2.6658566 -0.062933378 70 7
-3.8636975 -4.2416844 1.5373851 82 15
-0.92037541 -1.0065275 -0.3654525 7 0
-2.4348359 -2.661818 0.062968284 67 8
-1.0721701 -1.17171 -0.36667022 7 1
-3.5136621 -3.837177 0.27267036 58 9
-1.2266448 -1.3391176 -0.35299668 6 2
-3.9062049 -4.2628746 0.50585192 74 10
-1.4816273 -1.616346 -0.34728456 6 3
-3.9054554 -4.2590709 0.70952338 76 11
-1.8481135 -2.0140374 -0.33562821 7 4
-3.9099319 -4.2594738 0.91576743 76 12
-2.4552841 -2.6738458 -0.31759554 68 5
-3.9073374 -4.2536659 1.1227202 76 13
-2.4640398 -2.6805623 -0.19081691 62 6
-3.9149561 -4.257484 1.3353095 56 14
-2.4557979 -2.6697254 -0.063317336 66 7
-3.9112794 -4.2505064 1.547738 80 15
-0.93332314 -1.0103706 -0.36855832 7 0
-2.4645629 -2.6670842 0.063387141 63 8
-1.0688275 -1.1562511 -0.36352089 8 1
-3.5126948 -3.7973521 0.27110028 65 9
-1.2440743 -1.3444194 -0.3560496 6 2
-3.9547997 -4.2722912 0.50933814 78 10
-1.4790519 -1.597231 -0.34478158 6 3
-3.9471967 -4.2610936 0.71317947 97 11
-1.8582841 -2.0046573 -0.33562821 7 4
-3.9489019 -4.25846 0.91983473 100 12
-2.4836907 -2.6774518 -0.31951293 59 5
-3.9395008 -4.2453465 1.1257731 86 13
-2.4789345 -2.6695201 -0.19092159 61 6
-3.9536977 -4.2561741 1.3411582 54 14
-2.4883361 -2.6777694 -0.063805997 63 7
-3.9537883 -4.253293 1.5560201 75 15
-0.93315321 -0.99998391 -0.36648777 7 0
-2.4944057 -2.6721165 0.063805997 67 8
-1.0761974 -1.1520628 -0.36397079 8 1
-3.5209603 -3.7678497 0.2702629 86 9
-1.2562259 -1.3438421 -0.35757607 7 2
-3.9940648 -4.2711372 0.51160419 59 10
-1.5008919 -1.6038886 -0.34791031 6 3
-3.9504621 -4.2200785 0.7097671 48 11
-1.8684062 -1.9952266 -0.33562821 7 4
-3.940079 -4.2045722 0.91263872 29 12
-2.5044885 -2.6716788 -0.3203845 53 5
-3.9361591 -4.1974521 1.1185224 45 13
-2.5120115 -2.6768937 -0.19238698 66 6
-4.0199423 -4.2823009 1.356005 36 14
-2.5119054 -2.6749074 -0.064050332 60 7
-4.0236197 -4.2832232 1.5746551 24 15
-0.94650376 -1.003352 -0.36959362 8 0
-2.5252955 -2.676034 0.064224854 74 8
-1.0837528 -1.1476401 -0.36442071 6 1
-3.5440376 -3.7516489 0.27047226 61 9
-1.2526907 -1.3256105 -0.35452312 6 2
-3.9596295 -4.1886549 0.50428313 40 10
-1.506833 -1.5928742 -0.34728456 6 3
-3.9432187 -4.1669226 0.70440483 61 11
-1.8737154 -1.9793216 -0.33465323 7 4
-3.9423919 -4.1616821 0.90794575 53 12
-2.5408349 -2.6812279 -0.32317349 44 5
-3.9642143 -4.1817937 1.1200489 54 13
-2.5374551 -2.674855 -0.19322437 64 6
-4.048418 -4.2661428 1.3578045 26 14
-2.5222108 -2.6569273 -0.063945621 61 7
-4.054718 -4.2697945 1.5777609 29 15
-0.93858618 -0.98423576 -0.36441725 7 0
-2.5507801 -2.6739068 0.064504094 74 8
-1.0912918 -1.1431694 -0.36487061 8 1
-3.589113 -3.7584183 0.27235636 65 9
-1.2571326 -1.315974 -0.35375988 6 2
-3.9670928 -4.1513262 0.50236571 59 10
-1.5208902 -1.590409 -0.34853604 6 3
-3.9698226 -4.1498303 0.70513606 60 11
-1.8898869 -1.974892 -0.33562821 7 4
-3.9648507 -4.1402917 0.90794575 42 12
-2.5525484 -2.6645634 -0.32282487 26 5
-3.9881396 -4.1617022 1.1204305 33 13
-2.5657144 -2.6755018 -0.19427109 68 6
-4.055253 -4.2273006 1.3524057 24 14
-2.5531638 -2.6605558 -0.064364478 61 7
-4.0456519 -4.2143474 1.5653377 38 15
-0.95730525 -0.99305159 -0.36959362 7 0
-2.5735383 -2.6687036 0.064713523 74 8
-1.1069332 -1.1470642 -0.36801991 6 1
-3.6357512 -3.7662468 0.2743451 55 9
-1.2737811 -1.3190385 -0.35643122 7 2
-4.0005689 -4.1412649 0.50376016 29 10
-1.5184894 -1.5707947 -0.3460331 6 3
-4.0294752 -4.16682 0.71171701 37 11
-1.9005446 -1.9646376 -0.33562821 7 4
-4.0407777 -4.1741314 0.92014766 29 12
-2.5738575 -2.6578708 -0.32369643 16 5
-4.0488467 -4.1795454 1.1311158 30 13
-2.5954447 -2.6773558 -0.19542249 63 6
-4.0604281 -4.1871114 1.3465569 27 14
-2.5870142 -2.6667974 -0.064853139 65 7
-4.0401416 -4.1632833 1.5544673 35 15
-0.95692801 -0.98265743 -0.36752307 8 0
-2.5939901 -2.6628048 0.064888045 68 8
-1.0855191 -1.1135384 -0.35902187 6 1
-3.6324573 -3.7249169 0.27267036 19 9
-1.2818115 -1.3139803 -0.35681283 6 2
-4.074357 -4.1751485 0.51038402 25 10
-1.5264199 -1.5630893 -0.3460331 6 3
-4.0394173 -4.1350112 0.7097671 33 11
-1.9049144 -1.9493139 -0.33465323 6 4
-4.045938 -4.1387968 0.91670603 25 12
-2.5900636 -2.6476579 -0.32404503 12 5
-4.0424862 -4.1309371 1.1234834 26 13
-2.6098945 -2.6660676 -0.19552715 66 6
-4.0522089 -4.13798 1.3371091 26 14
-2.6214736 -2.6750925 -0.065376714 68 7
-4.043581 -4.1248474 1.547738 36 15
-0.96206003 -0.9776336 -0.36752307 7 0
-2.6261339 -2.6677125 0.065341808 70 8
-1.0995398 -1.1161693 -0.36172128 6 1
-3.7135935 -3.7684407 0.27727592 50 9
-1.2748915 -1.2932693 -0.35299668 6 2
-4.0793743 -4.1367345 0.50829226 19 10
-1.5484586 -1.5691357 -0.34916177 6 3
-4.0373049 -4.0897884 0.70562357 28 11
-1.9150946 -1.9393133 -0.33465323 7 4
-4.035624 -4.0852327 0.90951008 23 12
-2.6178977 -2.6482296 -0.32578817 9 5
-4.0364513 -4.0817938 1.115851 24 13
-2.6406739 -2.6694043 -0.19678321 66 6
-4.0464048 -4.0890036 1.3281111 24 14
-2.6382589 -2.6641715 -0.065446526 70 7
-4.0460887 -4.0844045 1.540491 38 15
-0.97533906 -0.9808017 -0.37062889 7 0
-2.6527584 -2.6666849 0.065655954 71 8
-1.0996768 -1.1050643 -0.35992166 5 1
-3.9968157 -4.0135937 0.29684958 24 9
-1.2844166 -1.2893581 -0.35375988 6 2
-1.5577757 -1.562677 -0.34947464 5 3
-4.0453377 -4.0566511 0.70342994 16 11
-1.9308318 -1.9348797 -0.33562821 7 4
-4.0499816 -4.057056 0.90794575 23 12
-2.6157815 -2.6194375 -0.32387072 8 5
-4.0626101 -4.0668669 1.1173775 24 13
-2.6715584 -2.672492 -0.19803928 64 6
-4.0663819 -4.0663819 1.3276612 28 14
-2.6601949 -2.6592665 -0.065655954 68 7
-4.0749092 -4.0720658 1.5435969 37 15
-0.96386129 -0.95949757 -0.36441725 7 0
-2.6889012 -2.6757922 0.066214427 71 8
-1.1135455 -1.1077305 -0.3626211 6 1
-3.6502166 -3.6286192 0.26973954 81 9
-1.2992815 -1.2911438 -0.3560496 6 2
-1.5628617 -1.5519886 -0.34884888 5 3
-3.6910751 -3.6641183 0.6385954 13 11
-1.9321444 -1.9166939 -0.33416575 7 4
-4.0886974 -4.0545888 0.91201305 25 12
-2.6247618 -2.6019559 -0.32334781 7 5
-4.1054544 -4.0683632 1.1234834 28 13
-2.702081 -2.6757996 -0.19929534 68 6
-4.1049156 -4.0635715 1.3335099 30 14
-2.6892562 -2.6612399 -0.066039905 74 7
-4.1037078 -4.0595403 1.5467027 38 15
-0.97696155 -0.96274239 -0.36752307 7 0
-2.7081075 -2.6677623 0.066354051 71 8
-1.1248853 -1.1073531 -0.36442071 5 1
-3.7439837 -3.6843457 0.27528715 16 9
-1.2974027 -1.2762901 -0.35375988 6 2
-1.5540589 -1.5271697 -0.34509447 5 3
-4.1279626 -4.0551224 0.71049833 40 11
-1.9446539 -1.9096714 -0.33465323 7 4
-4.1472287 -4.0712047 0.92046052 12 12
-2.6397722 -2.5895717 -0.32352212 8 5
-4.1659479 -4.0853 1.1341687 11 13
-2.7384095 -2.6844597 -0.20097008 67 6
-2.7202973 -2.6639128 -0.066458762 72 7
-4.146996 -4.0596204 1.5549849 38 15
-0.97922283 -0.95491648 -0.36648777 7 0
-2.7306306 -2.661921 0.06656348 67 8
-1.130668 -1.1014481 -0.36442071 5 1
-4.1509933 -4.0423079 0.30365324 12 9
-1.3125082 -1.2776959 -0.3560496 6 2
-4.1608424 -4.0490699 0.50794363 19 10
-1.5790281 -1.5355375 -0.34884888 5 3
-4.1576791 -4.0417557 0.71196079 25 11
-1.9603202 -1.9049976 -0.33562821 7 4
-4.2903419 -4.1678057 0.94736725 2 12
-2.6461463 -2.5687764 -0.32265055 7 5
-4.3507156 -4.2220302 1.1784364 1 13
-2.7538612 -2.6714756 -0.20107476 68 6
-4.5914121 -4.4524989 1.4765787 0 14
-2.7629294 -2.6774647 -0.067156859 70 7
-4.1945581 -4.0633903 1.5648201 43 15
-0.99811077 -0.96319103 -0.37166417 7 0
-2.7661183 -2.6684124 0.067087047 70 8
-1.1392257 -1.0982176 -0.3653205 5 1
-3.6744983 -3.5409942 0.26743674 11 9
-1.3135241 -1.2653582 -0.35452312 6 2
-4.2092547 -4.0534868 0.51125556 23 10
-1.5728123 -1.5135518 -0.3457202 5 3
-1.9645447 -1.8892032 -0.33465323 7 4
-4.2181153 -4.0549331 0.92671788 12 12
-2.6739285 -2.5686884 -0.32439366 7 5
-4.2368212 -4.0686479 1.1418011 11 13
-2.7836607 -2.6722341 -0.20222615 67 6
-4.6484089 -4.4607797 1.4873765 9 14
-2.7870133 -2.6726501 -0.067401193 68 7
-4.2436676 -4.06811 1.5751728 33 15
-0.99894857 -0.95394945 -0.37011126 7 0
-2.7959635 -2.669081 0.067471005 68 8
-1.1308595 -1.0787868 -0.36082149 6 1
-4.2465768 -4.0496168 0.30752611 26 9
-1.3116056 -1.2503353 -0.35223341 6 2
-4.2621512 -4.0616317 0.51509041 23 10
-1.5807159 -1.5052955 -0.3457202 6 3
-4.2500978 -4.0458999 0.72049159 7 11
-1.9744093 -1.878891 -0.33465323 7 4
-4.2550325 -4.0477672 0.93015939 40 12
-2.6815653 -2.5491619 -0.32369643 7 5
-4.2694516 -4.0572276 1.1448541 50 13
-2.814991 -2.6741288 -0.20348223 68 6
-4.6872449 -4.4511409 1.4923253 11 14
-2.8125739 -2.6690323 -0.067680433 66 7
-4.3279791 -4.1056647 1.5984664 8 15
-0.99690938 -0.94207144 -0.36752307 8 0
-2.8273432 -2.6708841 0.067889862 67 8
-1.1449951 -1.0808769 -0.36352089 6 1
-4.2967744 -4.0547414 0.30961955 26 9
-1.3267028 -1.2515339 -0.35452312 6 2
-4.3036537 -4.0583959 0.5175308 21 10
-1.5943264 -1.5024176 -0.34697169 6 3
-4.3015676 -4.052176 0.72561014 24 11
-1.987111 -1.8712491 -0.33514073 6 4
-4.3034964 -4.0511589 0.93610394 57 12
-2.6803644 -2.5214345 -0.32195333 7 5
-4.3192406 -4.0617166 1.1524864 52 13
-2.8435063 -2.673033 -0.20452894 67 6
-4.5784183 -4.3024292 1.4504844 24 14
-2.8337986 -2.661114 -0.067854956 63 7
-4.3874469 -4.1186461 1.6124427 1 15
-0.99759519 -0.93288028 -0.36597013 7 0
-2.8427503 -2.6574087 0.067924768 60 8
-1.1449425 -1.069546 -0.36172128 6 1
-4.3471394 -4.0594521 0.31171298 26 9
-1.3375432 -1.248589 -0.35566798 7 2
-4.3321271 -4.0426035 0.51840234 19 10
-1.5949481 -1.4873129 -0.34540737 6 3
-4.3372455 -4.0431337 0.72804755 28 11
-1.9997859 -1.8635257 -0.33562821 7 4
-4.3448853 -4.0474195 0.94048411 59 12
-2.6964459 -2.5100811 -0.32230192 7 5
-4.3533835 -4.0510812 1.1559209 60 13
-2.873549 -2.6730719 -0.20568034 70 6
-4.5794759 -4.258492 1.4437358 22 14
-2.8652713 -2.6625748 -0.068273813 66 7
-4.4372597 -4.1219134 1.6227955 1 15
-1.0081379 -0.93289238 -0.36804068 7 0
-2.8742414 -2.6587825 0.068343624 60 8
-1.1562512 -1.0688274 -0.36352089 6 1
-4.3830042 -4.050189 0.3127597 28 9
-1.3469466 -1.244233 -0.35643122 7 2
-4.3781195 -4.0428429 0.52136564 23 10
-1.6085205 -1.4843001 -0.34665883 6 3
-4.3758655 -4.0365191 0.73097235 28 11
-2.0109746 -1.854375 -0.33587193 6 4
-4.3936143 -4.0500536 0.9464286 70 12
-2.7095516 -2.4959283 -0.32230192 7 5
-4.3933101 -4.0455203 1.160882 52 13
-2.8948529 -2.664753 -0.2062037 68 6
-4.5658607 -4.2014675 1.4324883 20 14
-2.9056685 -2.6718998 -0.068902098 66 7
-4.4730039 -4.1116967 1.6279719 3 15
-1.0158582 -0.93021041 -0.36907598 7 0
-2.9146738 -2.6680005 0.06897191 66 8
-1.1618315 -1.0627588 -0.36352089 5 1
-4.4247861 -4.0460534 0.31422511 26 9
-1.3490956 -1.2331897 -0.35528636 7 2
-4.4433517 -4.0601835 0.526595 21 10
-1.622105 -1.4811857 -0.34791031 6 3
-4.4277301 -4.0416555 0.7360909 24 11
-2.0118582 -1.8357922 -0.33440951 6 4
-4.4249754 -4.0363121 0.94861871 34 12
-2.7328901 -2.4911025 -0.32352212 6 5
-4.4303956 -4.0370069 1.1650798 37 13
-2.9279606 -2.6670427 -0.20756441 70 6
-4.4336205 -4.0371161 1.3843488 28 14
-2.9314513 -2.6674154 -0.069181338 66 7
-4.5087609 -4.1012201 1.6331483 6 15
-1.0207148 -0.92487878 -0.36907598 7 0
-2.9478707 -2.6701543 0.069425672 67 8
-1.1688248 -1.0579689 -0.36397079 8 1
-4.4725685 -4.0469503 0.31610921 28 9
-1.3526219 -1.2234751 -0.35452312 6 2
-4.4748945 -4.046217 0.52781516 19 10
-1.6269066 -1.4700235 -0.34728456 6 3
-4.488605 -4.0543432 0.74267185 27 11
-2.0273366 -1.830554 -0.33538446 6 4
-4.4592457 -4.0250006 0.95143455 25 12
-2.7414577 -2.472755 -0.32299918 7 5
-4.4748001 -4.0347905 1.1711857 26 13
-2.9671054 -2.6744084 -0.20934384 70 6
-4.4778624 -4.0347171 1.3915472 30 14
-2.95578 -2.6613963 -0.069425672 61 7
-4.5646343 -4.108573 1.6455716 5 15
-1.0140365 -0.90920454 -0.36493486 7 0
-2.9796796 -2.6706998 0.069844536 67 8
-1.1801547 -1.0570351 -0.3657704 7 1
-4.9549699 -4.4364829 0.3485575 33 9
-1.3531581 -1.2111385 -0.35299668 6 2
-4.9295845 -4.4106565 0.57871413 14 10
-1.6375268 -1.464118 -0.34791031 6 3
-4.5571346 -4.0731177 0.75047147 27 11
-2.0368934 -1.819914 -0.33538446 6 4
-4.942872 -4.414783 1.0496755 26 12
-2.7469351 -2.4517338 -0.32212761 6 5
-4.6716566 -4.1681495 1.2169799 37 13
-3.0004454 -2.6761181 -0.21070457 67 6
-4.6865635 -4.1785126 1.4495846 48 14
-2.9816191 -2.6565251 -0.069704913 61 7
-4.5947394 -4.0923266 1.6486773 1 15
-1.0274538 -0.91157502 -0.36804068 7 0
-3.0040951 -2.6643491 0.070088863 69 8
-1.1796571 -1.045877 -0.36397079 8 1
-4.9646764 -4.3985581 0.34761545 29 9
-1.3712387 -1.2144501 -0.3560496 6 2
-4.9675293 -4.3979917 0.58045721 19 10
-1.6360407 -1.447956 -0.3460331 6 3
-4.5828595 -4.0531464 0.7512027 31 11
-2.0597796 -1.8210572 -0.33757812 7 4
-4.4952302 -3.9728506 0.95018309 25 12
-2.7563229 -2.4351606 -0.32177898 6 5
-4.5094485 -3.9812117 1.1692775 22 13
-3.0323851 -2.6762314 -0.21196064 58 6
-4.528636 -3.9953399 1.3942467 21 14
-3.0190227 -2.6625628 -0.070263386 63 7
-4.6588664 -4.1073451 1.6642065 1 15
-1.0307608 -0.9049083 -0.36752307 7 0
-3.0375433 -2.665731 0.070542626 64 8
-1.1821873 -1.0371157 -0.36307099 8 1
-4.528883 -3.9717228 0.31569052 24 9
-1.3685102 -1.1997291 -0.35375988 6 2
-4.5423946 -3.9793668 0.52833807 21 10
-1.6465719 -1.441973 -0.34665883 6 3
-4.5495458 -3.9828262 0.74242812 31 11
-2.0659826 -1.8079939 -0.33709061 7 4
-4.5576057 -3.9856689 0.95894337 17 12
-2.7750361 -2.4259405 -0.32247624 6 5
-4.5694547 -3.9932189 1.1795813 15 13
-3.0549171 -2.6687322 -0.21258868 57 6
-4.6823721 -4.0890131 1.4351877 7 14
-3.0540156 -2.6651266 -0.070752062 66 7
-5.026783 -4.3851428 1.7874043 3 15
-1.036786 -0.90094686 -0.36804068 7 0
-3.0645843 -2.6621244 0.070856772 63 8
-1.1772999 -1.0219694 -0.35992166 8 1
-4.5782776 -3.972827 0.31767929 35 9
-1.3777393 -1.1951199 -0.35452312 6 2
-4.5910764 -3.9811265 0.53165001 12 10
-1.6540996 -1.4333315 -0.34665883 6 3
-4.6483588 -4.0265365 0.75510252 22 11
-2.0604141 -1.7841574 -0.33465323 7 4
-4.9466267 -4.2818813 1.0362221 12 12
-2.7937274 -2.4165909 -0.32317349 6 5
-4.8219695 -4.1695619 1.2391137 5 13
-3.0839593 -2.6657608 -0.2136354 58 6
-4.939641 -4.2683001 1.5071721 10 14
-3.086091 -2.6647818 -0.071170911 67 7
-5.1929893 -4.4824696 1.8381329 59 15
-1.0414891 -0.89550579 -0.36804068 7 0
-3.1012275 -2.6655948 0.07138034 64 8
-1.1855916 -1.0183305 -0.36082149 8 1
-4.642961 -3.9865324 0.32071477 14 9
-1.3809986 -1.1853325 -0.35375988 6 2
-4.6632705 -4.0011439 0.53757662 12 10
-1.6645808 -1.4272226 -0.34728456 6 3
-4.7266531 -4.0512323 0.7643646 30 11
-2.0727429 -1.7759275 -0.33514073 7 4
-4.9299707 -4.2225132 1.0280875 12 12
-2.800288 -2.3967476 -0.32247624 6 5
-4.8780456 -4.1736131 1.2478909 12 13
-3.1191235 -2.667752 -0.2151008 64 6
-4.9411864 -4.2246475 1.5008734 10 14
-3.1091228 -2.6563814 -0.07138034 66 7
-5.2501764 -4.4840736 1.8500385 67 15
-1.0358638 -0.88127762 -0.36441725 8 0
-3.1288521 -2.6609795 0.071694486 60 8
-1.1909071 -1.0121089 -0.36082149 6 1
-4.7018237 -3.9944963 0.32333156 14 9
-1.382697 -1.1742725 -0.35261503 7 2
-4.7236462 -4.0101986 0.54210871 12 10
-1.6690186 -1.4159313 -0.34665883 6 3
-4.7826223 -4.0559583 0.7699706 30 11
-2.085041 -1.7676185 -0.33562821 6 4
-4.9309149 -4.178761 1.0237073 12 12
-2.8006349 -2.3717527 -0.32108176 6 5
-4.9298 -4.1733837 1.2555233 12 13
-3.1589675 -2.673317 -0.21688022 67 6
-4.945385 -4.1836147 1.4954746 10 14
-3.1382604 -2.6529751 -0.071729392 66 7
-5.3016176 -4.4802146 1.8598738 75 15
-1.040464 -0.87584168 -0.36441725 8 0
-3.156513 -2.6561477 0.072008632 58 8
-1.2111053 -1.0184011 -0.3653205 8 1
-4.7792425 -4.0173731 0.32720444 14 9
-1.3903291 -1.1682801 -0.35299668 6 2
-4.7979751 -4.0302615 0.54820961 12 10
-1.6748959 -1.4059035 -0.34634593 6 3
-4.828124 -4.0512776 0.77387041 30 11
-2.0988305 -1.7605039 -0.33635944 6 4
-4.9345627 -4.1376557 1.0199529 12 12
-2.8191237 -2.362174 -0.32177898 6 5
-4.9244933 -4.1248236 1.2486541 12 13
-3.1882343 -2.6695623 -0.21792693 70 6
-4.946301 -4.1401529 1.489176 9 14
-3.182786 -2.6621668 -0.072427489 67 7
-5.3561254 -4.4784174 1.8707441 78 15
-1.0450355 -0.87038219 -0.36441725 7 0
-3.188818 -2.654938 0.072427489 61 8
-1.195448 -0.9945972 -0.35902187 6 1
-4.8585634 -4.0408249 0.33118194 14 9
-1.3994466 -1.1634943 -0.35375988 6 2
-4.8803029 -4.0560231 0.5551821 12 10
-1.6867933 -1.4009004 -0.34728456 6 3
-4.8706532 -4.0436931 0.77728271 27 11
-2.106492 -1.7482228 -0.33611569 6 4
-4.8619008 -4.0335631 1.0005549 18 12
-2.8437238 -2.3575537 -0.32317349 6 5
-4.8659072 -4.0325871 1.2284284 18 13
-3.2113974 -2.6604769 -0.21855497 66 6
-4.8935738 -4.0511961 1.4666809 19 14
-3.2167089 -2.6620383 -0.072881252 63 7
-5.4182019 -4.4823279 1.8842027 83 15
-1.0527118 -0.86717141 -0.3654525 8 0
-3.230922 -2.660527 0.073055774 69 8
-1.2066578 -0.99327809 -0.36082149 6 1
-4.9120421 -4.0419803 0.33338007 21 9
-1.4117868 -1.1608936 -0.35528636 6 2
-4.9591246 -4.0763698 0.56163162 19 10
-1.692579 -1.3907952 -0.34697169 5 3
-4.9239707 -4.0445962 0.7824012 24 11
-2.1159196 -1.7368002 -0.33611569 6 4
-4.9371014 -4.051055 1.0115054 24 12
-2.8652723 -2.3502128 -0.32421938 6 5
-5.3758016 -4.4078841 1.3513094 35 13
-3.2566426 -2.6683798 -0.22064841 61 6
-5.3760395 -4.4033723 1.6043509 46 14
-3.2538116 -2.6641626 -0.073404826 63 7
-5.4902201 -4.4920936 1.9007671 93 15
-1.0647252 -0.86775023 -0.36804068 7 0
-3.5006106 -2.8519771 0.078815073 35 8
-1.2195704 -0.99288672 -0.36307099 8 1
-5.4822154 -4.4616342 0.37043396 11 9
-1.4224148 -1.1572022 -0.35643122 7 2
-5.5430517 -4.5079312 0.625081 48 10
-1.6985464 -1.3803712 -0.34665883 6 3
-5.514317 -4.4797659 0.87234086 24 11
-2.1311486 -1.7307026 -0.33709061 6 4
-5.5379596 -4.4957652 1.1297698 66 12
-2.8640201 -2.3233793 -0.32265055 6 5
-5.5429106 -4.4949718 1.3871815 60 13
-3.6056941 -2.9229612 -0.24325755 37 6
-5.5466661 -4.4932055 1.6479914 55 14
-3.5867593 -2.9045012 -0.080560312 35 7
-5.546699 -4.490027 1.9121553 92 15
-1.0588758 -0.85349053 -0.36441725 7 0
-3.6031888 -2.9032559 0.08076974 46 8
-1.2308232 -0.99137694 -0.36487061 8 1
-5.5941739 -4.5042658 0.37640023 68 9
-1.4148884 -1.1384131 -0.35299668 6 2
-5.5937543 -4.4991016 0.62804425 100 10
-1.7088295 -1.3739345 -0.34728456 6 3
-5.5872092 -4.4906273 0.88014042 50 11
