# .PCD v0.7 - Point Cloud Data file format
VERSION 0.7
FIELDS x y z intensity ring
SIZE 4 4 4 4 2
TYPE F F F F U
COUNT 1 1 1 1 1
WIDTH 1249
HEIGHT 1
VIEWPOINT 0 0 0 1 0 0 0
POINTS 1249
DATA ascii
-1.5341136 -1.0008396 -0.3560496 6 2
-6.2148795 -4.0529757 0.64913595 6 10
-1.8633162 -1.2146808 -0.35229045 5 3
-6.2118216 -4.0478902 0.91036409 52 11
-2.3552711 -1.5342112 -0.34513399 5 4
-6.2126212 -4.0453243 1.1741973 42 12
-3.1773083 -2.068892 -0.33171475 5 5
-6.2212687 -4.0494075 1.4428977 54 13
-3.9240732 -2.5531938 -0.24535099 52 6
-4.6247482 -3.0079403 1.2736728 23 14
-3.9280753 -2.5538468 -0.081781976 57 7
-6.2249675 -4.0456309 1.9892832 63 15
-1.1542265 -0.74813229 -0.36855832 8 0
-3.9287255 -2.5454993 0.081712164 42 8
-1.328145 -0.86020237 -0.3653205 8 1
-4.5267105 -2.9307032 0.28261417 5 9
-1.5425421 -0.9986794 -0.35719445 6 2
-6.2808409 -4.0648146 0.65453959 22 10
-1.8774962 -1.214607 -0.35416767 5 3
-4.5439992 -2.9385209 0.66443169 13 11
-2.3539441 -1.5216697 -0.34415907 5 4
-6.2615452 -4.0461273 1.1807675 61 12
-3.1711235 -2.0491378 -0.33032027 6 5
-6.2452612 -4.0340576 1.4451874 33 13
-3.932961 -2.5394814 -0.24535099 52 6
-6.2643428 -4.0432854 1.7213255 31 14
-3.9319253 -2.5368671 -0.081677265 61 7
-6.2617793 -4.038537 1.9965302 67 15
-1.150332 -0.73991841 -0.36648777 8 0
-3.9342232 -2.5296068 0.081642359 44 8
-1.3262215 -0.85240006 -0.36397079 8 1
-4.4713802 -2.8727798 0.27853197 13 9
-1.5427152 -0.99116629 -0.35643122 5 2
-6.3234916 -4.0611682 0.65750289 12 10
-1.8783998 -1.2059113 -0.35354191 5 3
-6.3151088 -4.0526719 0.9213323 56 11
-2.3558996 -1.5112998 -0.34367159 6 4
-3.1950293 -2.04881 -0.33206338 4 5
-6.3138475 -4.0471969 1.4577808 58 13
-3.9317114 -2.5192721 -0.24472295 54 6
-6.3095975 -4.0413637 1.7298737 50 14
-3.9289677 -2.5155799 -0.081432931 53 7
-4.6373191 -2.9679716 1.4752686 12 15
-1.1529077 -0.73589844 -0.36648777 8 0
-3.9379714 -2.5126324 0.081537649 44 8
-1.3374039 -0.85300505 -0.3662203 6 1
-4.420754 -2.8185005 0.27476382 30 9
-1.5461657 -0.98577505 -0.35643122 5 2
-6.3678718 -4.0583467 0.66064054 26 10
-1.8759339 -1.1951019 -0.35229045 5 3
-6.3359146 -4.0348687 0.92230725 17 11
-2.3728833 -1.5105284 -0.34537774 6 4
-6.3546367 -4.0436745 1.1929693 52 12
-3.1769474 -2.0216012 -0.3294487 4 5
-6.3594112 -4.0451531 1.4650315 12 13
-3.9371114 -2.5033882 -0.24451362 52 6
-6.3434005 -4.0318599 1.7352724 45 14
-3.9242218 -2.4932706 -0.081153691 50 7
-6.3468986 -4.0309715 2.0146475 66 15
-1.1587334 -0.73393726 -0.36752307 8 0
-3.9298234 -2.4881725 0.081188597 44 8
-1.3469599 -0.85250008 -0.36801991 7 1
-4.4322519 -2.804121 0.27486849 26 9
-1.5512562 -0.98142207 -0.35681283 5 2
-6.4224133 -4.0616508 0.66482401 14 10
-1.8784244 -1.1874907 -0.35197759 6 3
-6.3986239 -4.0434818 0.92937571 13 11
-2.388211 -1.5085979 -0.3468402 6 4
-6.4071293 -4.0457253 1.2001654 52 12
-3.2058852 -2.024328 -0.33171475 5 5
-6.3900943 -4.0334091 1.4688478 31 13
-3.9441361 -2.488565 -0.24440894 51 6
-4.6168466 -2.9118872 1.2601758 24 14
-3.9278271 -2.476357 -0.081048973 55 7
-6.391983 -4.0283642 2.0244827 51 15
-1.1514746 -0.72371989 -0.36441725 8 0
-3.9334052 -2.4712484 0.081083886 46 8
-1.3449765 -0.84468424 -0.36667022 7 1
-4.4284811 -2.7801366 0.27403107 26 9
-1.5563353 -0.97704494 -0.35719445 6 2
-6.4534283 -4.0497975 0.66656709 16 10
-1.8741908 -1.1756783 -0.35041323 6 3
-6.4412913 -4.0390482 0.93351924 48 11
-2.3900986 -1.4981436 -0.34635273 6 4
-6.4429731 -4.0369701 1.2042327 45 12
-3.2112434 -2.0120671 -0.33154044 4 5
-6.4374118 -4.0319209 1.4764801 34 13
-3.9290988 -2.4599438 -0.24294353 51 6
-6.450685 -4.0371003 1.7568678 8 14
-3.9330564 -2.460511 -0.080979168 56 7
-6.4436784 -4.0295863 2.0363884 40 15
-1.170386 -0.72991884 -0.36959362 7 0
-3.935219 -2.4532723 0.080944255 48 8
-1.3429552 -0.83689219 -0.3653205 6 1
-4.416121 -2.7509317 0.27267036 26 9
-1.5630692 -0.97368193 -0.35795769 5 2
-6.5182633 -4.0588417 0.67179644 16 10
-1.8866687 -1.1743484 -0.35197759 6 3
-6.4755774 -4.0291238 0.9364441 15 11
-2.3801425 -1.4803556 -0.34415907 6 4
-4.5227695 -2.8118927 0.84349471 12 12
-3.2385514 -2.0134697 -0.33363217 4 5
-6.4998031 -4.0394778 1.487547 58 13
-3.9359655 -2.4451599 -0.24283887 54 6
-6.497848 -4.0351195 1.7658658 48 14
-3.9365242 -2.443603 -0.080874451 53 7
-6.4971013 -4.0315142 2.0488117 63 15
-1.1729267 -0.72582918 -0.36959362 7 0
-3.9352558 -2.4342608 0.08076974 44 8
-1.3458686 -0.83219898 -0.3653205 8 1
-4.4019117 -2.7207985 0.27120495 39 9
-1.5614487 -0.96512324 -0.35681283 5 2
-6.5764613 -4.0632925 0.67632854 36 10
-1.8873951 -1.1656789 -0.35135183 6 3
-6.5504103 -4.0440359 0.94521874 50 11
-2.3886738 -1.474124 -0.34464651 6 4
-6.5416112 -4.0354509 1.2173731 51 12
-3.2455604 -2.002152 -0.33363217 3 5
-6.5272326 -4.0250082 1.4906 40 13
-3.9342752 -2.4251187 -0.24221084 55 6
-6.525166 -4.0205908 1.769465 45 14
-3.9314086 -2.4214573 -0.08059521 50 7
-6.5489693 -4.0321074 2.0607173 27 15
-1.163929 -0.71465462 -0.36597013 7 0
-3.9454329 -2.4215553 0.080804639 48 8
-1.3487654 -0.82749587 -0.3653205 6 1
-4.4113812 -2.7054174 0.27120495 22 9
-1.5664815 -0.96069366 -0.35719445 6 2
-6.5940018 -4.0423942 0.67667717 46 10
-1.8931371 -1.1601157 -0.35166472 5 3
-6.5864921 -4.0346279 0.94838732 13 11
-2.4107344 -1.4761424 -0.3470839 7 4
-6.5792456 -4.027029 1.2217534 54 12
-3.228739 -1.9762487 -0.33119181 3 5
-6.5847831 -4.0288415 1.500522 19 13
-3.9495323 -2.4155378 -0.24262951 52 6
-6.5740771 -4.019136 1.7789129 42 14
-3.9227738 -2.3972926 -0.080246165 47 7
-6.5761938 -4.0172772 2.0648584 36 15
-1.1664165 -0.71058738 -0.36597013 7 0
-3.9384909 -2.3984067 0.080490492 46 8
-1.3583038 -0.82683617 -0.36712012 6 1
-4.4105611 -2.683773 0.27057692 21 9
-1.5698254 -0.95521969 -0.35719445 6 2
-6.5331755 -3.9737935 0.66900748 16 10
-1.8870476 -1.1473433 -0.3497875 5 3
-6.646337 -4.0394487 0.95496827 48 11
-2.4158726 -1.4677184 -0.3470839 6 4
-6.6101451 -4.0142932 1.224882 43 12
-3.2356172 -1.964967 -0.33119181 3 5
-4.5563989 -2.7659798 1.0360929 12 13
-3.947695 -2.3955197 -0.24200147 54 6
-4.5919847 -2.7853894 1.2399302 16 14
-3.9311187 -2.383584 -0.080246165 48 7
-6.6364355 -4.0223346 2.0793524 71 15
-1.1655831 -0.70451313 -0.36493486 7 0
-3.9280114 -2.37327 0.080106542 43 8
-1.3445005 -0.81201518 -0.3626211 8 1
-4.4028034 -2.6580393 0.26953021 24 9
-1.5832342 -0.95582253 -0.35948417 6 2
-4.4556489 -2.6888802 0.45530161 16 10
-1.894424 -1.1427897 -0.35041323 6 3
-6.6875968 -4.0326233 0.95886809 16 11
-2.4226809 -1.4603018 -0.34732765 6 4
-4.5243649 -2.7260423 0.83661157 12 12
-3.2612286 -1.9649713 -0.33310926 4 5
-6.6362948 -3.9969516 1.5058646 22 13
-3.9406331 -2.3724546 -0.24105945 58 6
-6.695478 -4.0294147 1.8041074 50 14
-3.9325607 -2.3657238 -0.080106542 53 7
-6.6752682 -4.0140796 2.0871167 49 15
-1.18626 -0.71136868 -0.37062889 7 0
-3.9379869 -2.3605721 0.080141447 46 8
-1.3640431 -0.81733328 -0.36712012 7 1
-4.4000621 -2.6354694 0.26879749 26 9
-1.5899299 -0.95230746 -0.3602474 6 2
-6.5282784 -3.9086423 0.66569555 22 10
-1.9051816 -1.1402278 -0.35166472 5 3
-6.7101488 -4.0143518 0.96008676 9 11
-2.4107268 -1.4416478 -0.34489027 6 4
-6.6905704 -3.9994681 1.2345809 3 12
-3.2663579 -1.952553 -0.33293492 4 5
-6.6872826 -3.995919 1.5142603 13 13
-3.9368875 -2.3515153 -0.24032672 60 6
-6.7279086 -4.0170059 1.8090565 10 14
-3.9356432 -2.3489087 -0.080001831 55 7
-6.7439876 -4.023416 2.1041989 25 15
-1.1804347 -0.70228481 -0.36804068 7 0
-3.9462028 -2.3468115 0.080141447 50 8
-1.3601873 -0.80858374 -0.3653205 6 1
-4.4006495 -2.6149929 0.26827416 26 9
-1.5746788 -0.93571955 -0.3560496 6 2
-6.5333176 -3.8807428 0.66482401 26 10
-1.917643 -1.1386131 -0.35322908 6 3
-6.7599702 -4.0121808 0.96520531 5 11
-2.4259877 -1.4393011 -0.34635273 6 4
-6.7503657 -4.0032949 1.2430284 15 12
-3.2748675 -1.9421557 -0.33310926 5 5
-6.7670536 -4.0115957 1.5291433 3 13
-3.9519451 -2.3418317 -0.24074543 61 6
-6.7838044 -4.0183272 1.8203038 46 14
-3.9334941 -2.3290431 -0.079792403 55 7
-6.7829289 -4.0146108 2.1119635 76 15
-1.1762242 -0.69423229 -0.36597013 7 0
-3.9457593 -2.3279426 0.079966925 46 8
-1.373073 -0.80977041 -0.36801991 6 1
-4.4028687 -2.5955584 0.26785544 22 9
-1.5796269 -0.93121415 -0.35643122 6 2
-6.5159259 -3.8397076 0.66168642 20 10
-1.9182017 -1.1299071 -0.35260335 6 3
-4.4885859 -2.6429243 0.63957036 3 11
-2.4241543 -1.4267963 -0.34537774 6 4
-6.8000526 -4.0007429 1.2495986 13 12
-3.267889 -1.9226297 -0.33171475 5 5
-4.5336514 -2.6662636 1.0223546 10 13
-3.953208 -2.3239732 -0.24032672 61 6
-6.8313928 -4.0143681 1.8293018 45 14
-3.9347029 -2.3112471 -0.079652779 56 7
-6.8352165 -4.0134068 2.1238692 68 15
-1.1786402 -0.69012249 -0.36597013 7 0
-3.9331515 -2.3020327 0.079548068 46 8
-1.3657992 -0.79906809 -0.3653205 6 1
-4.4032812 -2.5751331 0.26733211 29 9
-1.5879517 -0.92866814 -0.35757607 6 2
-4.4514756 -2.6022744 0.45111811 16 10
-1.9119009 -1.1172246 -0.3507261 6 3
-4.4532175 -2.6012089 0.63323313 12 11
-2.4428339 -1.4263332 -0.34732765 6 4
-4.4937444 -2.6227765 0.82409686 6 12
-3.2780218 -1.9132195 -0.33206338 4 5
-6.891552 -4.020649 1.5508956 4 13
-3.9561207 -2.3071413 -0.24001274 57 6
-6.890821 -4.0169969 1.8414494 29 14
-3.9358361 -2.2934713 -0.079513162 55 7
-6.8959255 -4.016748 2.1383629 19 15
-1.1927357 -0.69279617 -0.36959362 7 0
-3.9428933 -2.2892938 0.079582974 46 8
-1.3685799 -0.79429603 -0.3653205 8 1
-4.4070606 -2.5567403 0.26701808 24 9
-1.5979764 -0.92706025 -0.35910255 5 2
-4.5294743 -2.6267002 0.45809054 18 10
-1.9174981 -1.1115352 -0.35103899 5 3
-6.7243228 -3.8963854 0.95423704 13 11
-2.4374912 -1.4118276 -0.34586522 6 4
-6.9440637 -4.0204787 1.2708738 13 12
-3.3036466 -1.9127475 -0.3339808 4 5
-6.9293346 -4.010334 1.5562382 4 13
-3.9468617 -2.2833164 -0.23896599 58 6
-4.5868921 -2.6525164 1.2232838 11 14
-3.9438181 -2.2797186 -0.079513162 58 7
-6.9433584 -4.0119824 2.1487157 84 15
-1.193473 -0.68766373 -0.36907598 7 0
-3.943928 -2.2715249 0.07944335 46 8
-1.3679667 -0.78756928 -0.36442071 6 1
-4.383069 -2.5224121 0.26502931 27 9
-1.6063079 -0.92441404 -0.3602474 5 2
-4.8045764 -2.763871 0.48493454 50 10
-1.9230785 -1.1058196 -0.35135183 6 3
-6.7688618 -3.8906956 0.9586243 13 11
-2.4389622 -1.4013333 -0.34537774 6 4
-6.9888887 -4.0139232 1.2765055 13 12
-3.3189416 -1.9061652 -0.33485237 4 5
-6.9994779 -4.0183783 1.5688316 6 13
-3.9444139 -2.2635617 -0.23833798 58 6
-6.9913826 -4.0104866 1.8607951 46 14
-3.948282 -2.2639484 -0.07944335 56 7
-6.992517 -4.0078969 2.1595864 84 15
-1.2042521 -0.6882869 -0.37166417 7 0
-3.951833 -2.2577443 0.07944335 52 8
-1.3740917 -0.78472215 -0.3653205 6 1
-4.3866429 -2.5041273 0.26471528 21 9
-1.6027046 -0.91490841 -0.35872093 6 2
-4.8020821 -2.7401707 0.48371434 50 10
-1.9252114 -1.098121 -0.35103899 5 3
-7.0255537 -4.0056815 0.99299151 5 11
-2.4438388 -1.3928112 -0.34537774 6 4
-7.0320368 -4.0061235 1.2818241 7 12
-3.3290381 -1.8965399 -0.335201 4 5
-7.0509944 -4.015296 1.5772274 9 13
-3.9488196 -2.2478032 -0.23812862 58 6
-7.0578456 -4.015934 1.8747422 13 14
-3.9387784 -2.240267 -0.079094306 58 7
-4.6015615 -2.6161771 1.4183285 27 15
-1.1948833 -0.67740971 -0.36804068 7 0
-3.9562106 -2.2419641 0.079373546 46 8
-1.3768226 -0.77992088 -0.3653205 6 1
-4.3762398 -2.4779747 0.2635639 27 9
-1.5990549 -0.9054389 -0.35719445 6 2
-4.4787059 -2.5349622 0.45024657 20 10
-1.9359099 -1.0952853 -0.35229045 6 3
-4.4372649 -2.5094621 0.62592101 9 11
-2.4590542 -1.3901334 -0.3468402 6 4
-7.0459771 -3.9815545 1.2818241 12 12
-3.3234954 -1.8780472 -0.3339808 4 5
-7.0871892 -4.003211 1.5821884 9 13
-3.9566426 -2.2340043 -0.23812862 57 6
-7.0955796 -4.004684 1.8810407 38 14
-3.9396076 -2.2225742 -0.078954689 58 7
-7.0994167 -4.0035806 2.1839154 98 15
-1.2056601 -0.67796904 -0.37062889 7 0
-3.9465809 -2.2183423 0.079024501 45 8
-1.3965261 -0.78465569 -0.36981952 5 1
-4.3778973 -2.4587715 0.26314521 27 9
-1.6022058 -0.89985162 -0.35719445 6 2
-4.659523 -2.6158721 0.4675034 16 10
-1.9397212 -1.088521 -0.35229045 5 3
-4.4425354 -2.4920154 0.62543356 4 11
-2.4690864 -1.3844539 -0.3475714 6 4
-4.4630136 -2.5014553 0.81033063 11 12
-3.3317688 -1.8674085 -0.33415511 4 5
-7.1388006 -3.9995582 1.5905839 30 13
-3.9574463 -2.2162759 -0.23770994 58 6
-7.1537261 -4.0046401 1.8927382 44 14
-3.9473417 -2.2088087 -0.078954689 61 7
-7.1420102 -3.9948063 2.1927149 95 15
-1.2113936 -0.67563868 -0.37166417 7 0
-3.9525535 -2.2035787 0.078989588 46 8
-1.3856385 -0.77218705 -0.3662203 5 1
-4.3847079 -2.4425037 0.26304054 22 9
-1.6344936 -0.91049546 -0.36368197 5 2
-4.8044024 -2.6751947 0.48109969 46 10
-1.9366051 -1.0779006 -0.35103899 6 3
-7.2215023 -4.0177865 1.0146842 12 11
-2.4721689 -1.3748617 -0.34732765 6 4
-7.2117238 -4.0090504 1.3068537 48 12
-3.3434913 -1.8586713 -0.33467805 4 5
-7.1939063 -3.9974997 1.5997428 12 13
-3.944206 -2.1908112 -0.23645388 57 6
-7.2051439 -4.0004559 1.9026359 39 14
-3.9550285 -2.1950154 -0.078954689 58 7
-7.2049007 -3.997031 2.2077267 92 15
-1.2137449 -0.67140573 -0.37166417 7 0
-3.9549713 -2.1868651 0.078884877 46 8
-1.3883253 -0.76734585 -0.3662203 6 1
-4.3634882 -2.4107625 0.26126111 27 9
-1.6221963 -0.89623946 -0.3602474 6 2
-4.803247 -2.6526287 0.48005384 30 10
-1.9403555 -1.0711344 -0.35103899 5 3
-7.301528 -4.0289979 1.0239463 53 11
-2.4682622 -1.36143 -0.34610897 5 4
-7.2723804 -4.0096054 1.3153011 45 12
-3.3517034 -1.8479518 -0.33485237 5 5
-7.2783117 -4.0112171 1.6153891 45 13
-3.9465811 -2.1741388 -0.23613985 55 6
-4.5475502 -2.5041718 1.1985391 14 14
-3.9486516 -2.1734831 -0.078675449 61 7
-7.2797413 -4.0053825 2.2263615 28 15
-1.2126936 -0.66530639 -0.37062889 8 0
-3.964334 -2.1740091 0.078919783 45 8
-1.3944132 -0.76436847 -0.36712012 6 1
-4.3596163 -2.3887982 0.26052842 22 9
-1.6184281 -0.88679779 -0.35872093 6 2
-4.4717236 -2.4492128 0.44606307 20 10
-1.9440831 -1.0643543 -0.35103899 5 3
-7.4705315 -4.0883017 1.0456392 17 11
-2.4834485 -1.3585225 -0.3475714 5 4
-7.468318 -4.0837035 1.3481523 21 12
-3.3738668 -1.8448427 -0.33642116 3 5
-7.4834909 -4.0903039 1.6577487 27 13
-3.9611566 -2.1641805 -0.23655853 57 6
-7.4808912 -4.0854926 1.9678718 25 14
-3.945683 -2.1539373 -0.078466021 61 7
-7.4886966 -4.0863624 2.2858899 66 15
-1.2048268 -0.6555298 -0.36752307 8 0
-3.9525747 -2.149648 0.078535825 45 8
-1.3953608 -0.75856531 -0.36667022 7 1
-4.3661728 -2.3726132 0.26042375 35 9
-1.6215135 -0.88114339 -0.35872093 6 2
-4.8093929 -2.6123753 0.47883365 38 10
-1.9582024 -1.063217 -0.35291618 5 3
-4.4332786 -2.4060731 0.61934006 13 11
-2.4951549 -1.3536317 -0.34854636 6 4
-7.5658793 -4.1028094 1.3631701 12 12
-3.3522627 -1.8178582 -0.33363217 4 5
-7.5909266 -4.1146779 1.6783561 51 13
-3.9599075 -2.1455822 -0.23603518 58 6
-7.5585089 -4.0936928 1.9845182 25 14
-3.9461441 -2.1363432 -0.078326404 56 7
-7.5691772 -4.0960546 2.306078 97 15
-1.2139083 -0.6549896 -0.36959362 8 0
-3.9547751 -2.1329892 0.078431122 45 8
-1.4065769 -0.75831413 -0.36891973 6 1
-4.3691535 -2.3545153 0.26010972 19 9
-1.6280359 -0.8773405 -0.35948417 6 2
-4.8149743 -2.5936801 0.47848502 38 10
-1.958423 -1.0545026 -0.35229045 5 3
-7.6439729 -4.1141362 1.0658693 22 11
-2.4998651 -1.344913 -0.34854636 6 4
-7.6410465 -4.1091199 1.3741205 9 12
-3.360343 -1.8070891 -0.33380648 4 5
-7.6173472 -4.0946641 1.6810273 42 13
-3.9673729 -2.1317463 -0.23603518 57 6
-7.6448579 -4.1060109 2.0034139 12 14
-3.9482911 -2.1197188 -0.078221686 63 7
-4.5926137 -2.4646022 1.3965876 19 15
-1.2161874 -0.65074825 -0.36959362 7 0
-3.9551425 -2.1153996 0.078291491 46 8
-1.3920296 -0.74421179 -0.36442071 6 1
-4.3632541 -2.3317189 0.25927237 21 9
-1.6310885 -0.87165219 -0.35948417 6 2
-4.4215589 -2.3618851 0.43856767 11 10
-1.9533794 -1.0430077 -0.3507261 6 3
-7.7125783 -4.1164026 1.0734253 45 11
-2.4975388 -1.3324412 -0.3475714 5 4
-7.702404 -4.1075211 1.382568 39 12
-3.3842101 -1.8047242 -0.33554959 5 5
-7.7043591 -4.1068344 1.6970552 12 13
-3.9536381 -2.1066141 -0.23477912 58 6
-7.6901026 -4.0957913 2.0115123 35 14
-3.9539013 -2.1049826 -0.07818678 61 7
-7.6930919 -4.0939345 2.3350656 100 15
-1.2252775 -0.65012079 -0.37166417 8 0
-3.9589698 -2.0997069 0.078221686 45 8
-1.408393 -0.74665028 -0.36801991 6 1
-4.3590136 -2.3099265 0.25853965 19 9
-1.6271825 -0.86227578 -0.35795769 6 2
-4.8135972 -2.5497448 0.4765676 10 10
-1.9674828 -1.0417289 -0.35260335 6 3
-7.7637448 -4.1089554 1.0785438 53 11
-2.5056837 -1.325572 -0.34805888 5 4
-7.7533665 -4.1000013 1.3891382 37 12
-3.3763988 -1.7854489 -0.33415511 5 5
-7.7394767 -4.0909257 1.7016346 10 13
-3.9592009 -2.0918682 -0.23467445 57 6
-7.740541 -4.0880322 2.0209603 34 14
-3.9612248 -2.0911679 -0.07818678 58 7
-7.7483401 -4.0886955 2.3474889 100 15
-1.22412 -0.64404076 -0.37062889 8 0
-3.9662752 -2.0858748 0.078221686 45 8
-1.4075407 -0.73991632 -0.36712012 6 1
-4.3529053 -2.2872653 0.25770226 27 9
-1.6336582 -0.85841745 -0.35872093 6 2
-4.3762045 -2.2985334 0.4324668 18 10
-1.9763541 -1.0376087 -0.35354191 5 3
-7.8149524 -4.101203 1.0836623 46 11
-2.5173273 -1.320506 -0.34903383 4 4
-7.813118 -4.0967603 1.3972728 34 12
-3.4073148 -1.7866045 -0.33659548 5 5
-7.8197865 -4.0985193 1.7161362 27 13
-3.9629405 -2.0761814 -0.23446509 58 6
-7.7996488 -4.0844927 2.0326576 18 14
-3.9507837 -2.0680554 -0.077837728 58 7
-7.8087807 -4.0858049 2.361465 75 15
-1.2229352 -0.63797683 -0.36959362 8 0
-3.9806235 -2.0757163 0.078361303 50 8
-1.4170275 -0.73860115 -0.36891973 5 1
-4.3573198 -2.270211 0.25749293 35 9
-1.6436092 -0.8563382 -0.3602474 6 2
-7.9025168 -4.1155457 0.77952093 16 10
-1.9764596 -1.0288799 -0.35291618 5 3
-7.8785272 -4.099555 1.0904869 15 11
-2.5113547 -1.3062147 -0.3475714 5 4
-7.8641753 -4.0885992 1.403843 36 12
-3.3993881 -1.7673482 -0.335201 6 5
-7.8932753 -4.1019788 1.7291112 45 13
-3.9701641 -2.0623343 -0.23446509 58 6
-4.5416541 -2.3581946 1.181443 15 14
-3.9491043 -2.0496459 -0.077663213 56 7
-7.8915892 -4.0941057 2.3821707 33 15
-1.2217227 -0.63192922 -0.36855832 8 0
-3.9683063 -2.0517051 0.077977359 43 8
-1.4126722 -0.73007149 -0.36712012 7 1
-4.3740902 -2.2595718 0.25801629 24 9
-1.639611 -0.84699184 -0.35872093 6 2
-6.5253706 -3.3694375 0.64251208 8 10
-1.9730177 -1.0183505 -0.35166472 5 3
-7.9580636 -4.1057043 1.0995053 39 11
-2.5229561 -1.3010799 -0.34854636 6 4
-7.9293194 -4.0873713 1.4129163 37 12
-3.4214752 -1.7636871 -0.33676979 6 5
-7.9354692 -4.0887885 1.7352172 45 13
-3.9737871 -2.0466354 -0.23425576 57 6
-7.9319296 -4.0834618 2.0596519 31 14
-3.9526782 -2.0340183 -0.077593401 58 7
-7.9350362 -4.0815578 2.3909705 100 15
-1.2307971 -0.6311869 -0.37062889 7 0
-3.9665461 -2.0332794 0.077802829 43 8
-1.3978688 -0.71624941 -0.3626211 6 1
-4.3677297 -2.2370057 0.2571789 22 9
-1.6477997 -0.84394813 -0.35986578 6 2
-6.6860657 -3.4229052 0.65715432 8 10
-1.9765605 -1.0114571 -0.35166472 5 3
-8.0059252 -4.0950761 1.1041363 49 11
-2.5327847 -1.2949761 -0.34927759 6 4
-3.4151919 -1.7453862 -0.33554959 6 5
-8.0126333 -4.0932159 1.7489554 48 13
-3.9666767 -2.025485 -0.23341838 58 6
-8.0051498 -4.0858707 2.0749483 26 14
-3.9633172 -2.0220261 -0.077663213 58 7
-7.9974227 -4.0784082 2.4054644 100 15
-1.232993 -0.62688643 -0.37062889 7 0
-3.9754021 -2.0203273 0.077837728 40 8
-1.4107848 -0.71666133 -0.3653205 8 1
-4.3612657 -2.2145107 0.25634155 22 9
-1.650736 -0.83819067 -0.35986578 5 2
-6.6944199 -3.397742 0.65680563 2 10
-1.9888871 -1.0090206 -0.35322908 6 3
-7.9829922 -4.0482512 1.0990179 13 11
-2.5302072 -1.282537 -0.3483026 6 4
-4.445787 -2.2525518 0.78936839 15 12
-3.4283721 -1.7370571 -0.33624685 6 5
-8.0548964 -4.0794144 1.7550613 16 13
-3.9648135 -2.0071161 -0.23289503 57 6
-8.0576181 -4.0772591 2.0848465 14 14
-3.9632134 -2.0045688 -0.077523597 58 7
-8.0719519 -4.0809741 2.4235816 100 15
-1.2420741 -0.62605673 -0.37269944 7 0
-3.9806437 -2.0055392 0.077802829 38 8
-1.4202398 -0.71523845 -0.36712012 7 1
-4.3436112 -2.1874602 0.25487614 26 9
-1.6501445 -0.8306579 -0.35910255 6 2
-4.3533602 -2.190465 0.42636588 16 10
-1.9959267 -1.0038464 -0.35385481 6 3
-7.9935274 -4.0185771 1.0985304 57 11
-2.5222523 -1.2674584 -0.34659645 6 4
-8.1280766 -4.0844445 1.4407616 71 12
-3.4397566 -1.7277611 -0.33676979 6 5
-8.1410227 -4.087389 1.7707076 39 13
-3.9700103 -1.9923694 -0.23279037 58 6
-8.1275415 -4.0770688 2.0992434 63 14
-3.9483902 -1.9806554 -0.077104732 55 7
-4.5763388 -2.2946577 1.3717409 28 15
-1.2338831 -0.61653662 -0.36959362 7 0
-3.996217 -1.996797 0.077977359 48 8
-1.4208604 -0.70965403 -0.36667022 7 1
-4.34586 -2.1696072 0.25456211 40 9
-1.6512772 -0.82401651 -0.35872093 5 2
-8.0052328 -3.9930079 0.78265858 14 10
-2.0010123 -0.99810433 -0.35416767 5 3
-8.0014801 -3.9893899 1.0977992 40 11
-2.5406549 -1.2661709 -0.34854636 5 4
-8.1422844 -4.056047 1.4407616 82 12
-3.4439833 -1.7148556 -0.33659548 5 5
-8.142231 -4.0542445 1.7680362 73 13
-3.9694428 -1.9756333 -0.23237166 58 6
-8.1445065 -4.0518303 2.100143 56 14
-3.9570701 -1.9677511 -0.077139638 50 7
-8.1445198 -4.0482936 2.4370401 53 15
-1.2324587 -0.61072588 -0.36855832 8 0
-3.9762838 -1.9695216 0.077453777 43 8
-1.4338076 -0.70987749 -0.36936963 7 1
-4.3462467 -2.1508815 0.25414345 29 9
-1.6592793 -0.8211484 -0.35986578 5 2
-2.0027134 -0.9902373 -0.35385481 6 3
-4.4561396 -2.2023621 0.61032176 1 11
-2.5450594 -1.2572944 -0.34854636 5 4
-8.1174278 -4.0083566 1.4338784 74 12
-3.4317865 -1.6946038 -0.33485237 6 5
-8.1176004 -4.0066824 1.7596406 32 13
-3.9798973 -1.9635326 -0.23258102 58 6
-8.144618 -4.0164804 2.0965438 51 14
-3.9513593 -1.9477384 -0.076895304 58 7
-8.1395397 -4.010447 2.4313462 50 15
-1.244987 -0.61153036 -0.37166417 7 0
-3.9956994 -1.9617988 0.077698112 43 8
-1.4257802 -0.69971728 -0.36667022 7 1
-4.3573141 -2.1374562 0.25435278 26 9
-1.6568478 -0.81275749 -0.35872093 6 2
-2.0008364 -0.9806329 -0.35291618 6 3
-4.3853621 -2.1483672 0.59959722 11 11
-2.5708268 -1.2588782 -0.35147122 6 4
-8.1384668 -3.9834728 1.43513 79 12
-3.4591546 -1.693126 -0.3369441 6 5
-8.1350651 -3.9800479 1.760404 65 13
-3.9723737 -1.9426076 -0.23174362 58 6
-8.1585884 -3.9880278 2.0965438 13 14
-3.9581342 -1.9339336 -0.076895304 58 7
-8.1517544 -3.9811606 2.4308286 76 15
-1.2540618 -0.6105634 -0.37373474 7 0
-3.9917345 -1.9425888 0.077488683 42 8
-1.4212043 -0.69132632 -0.36487061 8 1
-4.328825 -2.1047664 0.25225934 26 9
-1.6561435 -0.80525202 -0.35795769 6 2
-7.7018685 -3.7431498 0.74919075 6 10
-2.0184617 -0.9805479 -0.35541913 6 3
-7.6106758 -3.6955462 1.0388143 8 11
-2.5555606 -1.2403628 -0.34879011 6 4
-8.1345491 -3.9464176 1.4320012 37 12
-3.4668367 -1.6819105 -0.33711842 4 5
-8.1418419 -3.9482002 1.7588774 84 13
-3.971941 -1.9252459 -0.23132494 58 6
-8.1373844 -3.9425309 2.0875459 40 14
-3.961262 -1.9183612 -0.0768255 61 7
-8.153429 -3.9467909 2.4272051 79 15
-1.245746 -0.60114491 -0.37062889 8 0
-4.0020938 -1.9303809 0.077558495 42 8
-1.4376519 -0.69313169 -0.36846983 7 1
-4.3397436 -2.0913782 0.25246868 26 9
-1.6483326 -0.79435265 -0.35566798 6 2
-5.3957539 -2.5991213 0.52398032 4 10
-2.0218723 -0.97349614 -0.35541913 6 3
-7.5913329 -3.6534622 1.0344272 5 11
-2.5473528 -1.2254107 -0.3470839 6 4
-4.4203992 -2.1254947 0.77685362 13 12
-3.4780729 -1.6723887 -0.33764133 4 5
-8.1414194 -3.9129522 1.7558244 87 13
-3.9768372 -1.9105046 -0.23122028 61 6
-8.1440697 -3.9107273 2.085746 60 14
-3.9463003 -1.8941394 -0.076406635 58 7
-8.1375475 -3.9041007 2.4184053 100 15
-1.2408658 -0.59345841 -0.36855832 8 0
-3.9997869 -1.9120866 0.077383965 42 8
-1.4470956 -0.69147015 -0.37026942 7 1
-4.3325996 -2.0693293 0.25163129 29 9
-1.6546385 -0.79028583 -0.35643122 6 2
-4.347569 -2.0755472 0.42148519 1 10
-2.0323892 -0.96983594 -0.35667065 6 3
-4.3825355 -2.0903623 0.59618485 8 11
-2.562366 -1.221637 -0.34854636 5 4
-8.1208878 -3.8699882 1.4248053 26 12
-3.4695005 -1.6533816 -0.33624685 5 5
-8.1231241 -3.869312 1.7489554 78 13
-3.9834819 -1.8966111 -0.23122028 63 6
-8.124239 -3.8663621 2.077198 21 14
-3.9564996 -1.8820705 -0.076476447 61 7
-8.1319332 -3.8665459 2.4127111 54 15
-1.2499125 -0.59243298 -0.37062889 7 0
-4.0046296 -1.8972578 0.077349067 43 8
-1.4459782 -0.68474615 -0.36936963 7 1
-4.3271599 -2.0482116 0.2508986 30 9
-1.6644852 -0.78786498 -0.35795769 6 2
-4.3457818 -2.0560989 0.42061362 22 10
-2.0250478 -0.95766801 -0.3547934 6 3
-7.5969114 -3.5910435 1.0317459 4 11
-2.5809729 -1.21947 -0.35049626 5 4
-8.1200571 -3.834866 1.4223022 66 12
-3.4716477 -1.6395581 -0.33589822 5 5
-8.1117258 -3.8292003 1.7436126 32 13
-3.9846587 -1.8801385 -0.23090626 64 6
-8.1429729 -3.8404758 2.0785477 28 14
-3.9594278 -1.8665428 -0.076406635 61 7
-8.129652 -3.8307273 2.4080527 100 15
-1.2624642 -0.59299463 -0.37373474 7 0
-4.0057969 -1.8807176 0.077244349 43 8
-1.4377749 -0.6747272 -0.36667022 7 1
-4.3397079 -2.03564 0.25121263 27 9
-1.6707801 -0.78371793 -0.35872093 6 2
-5.4190679 -2.5407851 0.52363169 12 10
-2.024801 -0.94891691 -0.35416767 6 3
-7.5734472 -3.5476639 1.0268712 12 11
-2.5924053 -1.2138196 -0.35147122 5 4
-8.167388 -3.822408 1.4282467 47 12
-3.5062225 -1.6409423 -0.33868721 5 5
-8.1801691 -3.8266518 1.7554429 69 13
-3.9767239 -1.8594493 -0.23006889 64 6
-8.1510315 -3.8095522 2.077198 62 14
-3.9659185 -1.8527113 -0.076406635 61 7
-4.5721087 -2.1349249 1.3520708 23 15
-1.2557694 -0.58450806 -0.3711465 6 0
-4.0087123 -1.8650355 0.077174544 40 8
-1.4330531 -0.66641778 -0.36487061 8 1
-4.3286757 -2.0120606 0.25016591 29 9
-1.6859678 -0.7836737 -0.36139226 6 2
-5.4333248 -2.5243704 0.52415466 10 10
-2.0281007 -0.94184369 -0.35416767 6 3
-7.5929861 -3.5245485 1.0278461 4 11
-2.5840218 -1.1989146 -0.34976503 6 4
-8.18964 -3.798032 1.4298111 14 12
-3.5010839 -1.6236647 -0.33764133 5 5
-3.9795661 -1.8438772 -0.22985955 64 6
-8.1253767 -3.7630613 2.0673003 52 14
-3.9705472 -1.8380153 -0.076371737 63 7
-8.1474314 -3.76982 2.4054644 100 15
-1.264819 -0.58335739 -0.37321708 7 0
-4.0424376 -1.8635896 0.077698112 40 8
-1.4442199 -0.66548908 -0.36712012 7 1
-4.3320441 -1.9952669 0.24995655 27 9
-1.6708609 -0.76957059 -0.35757607 6 2
-4.6765523 -2.1529527 0.45042086 1 10
-2.038554 -0.93806154 -0.35541913 6 3
-4.3770285 -2.0132074 0.59155381 13 11
-2.5737617 -1.1832544 -0.34781513 6 4
-8.2082329 -3.7718961 1.4307499 14 12
-3.5031095 -1.6097698 -0.3372927 5 5
-4.4512348 -2.0445158 0.95213693 9 13
-3.9823477 -1.8283077 -0.22965018 66 6
-8.1225233 -3.7273605 2.0632513 44 14
-3.9642155 -1.8183081 -0.076127395 65 7
-8.1394682 -3.7316957 2.3992527 100 15
-1.2563052 -0.57412094 -0.37011126 7 0
-4.0398235 -1.8453133 0.077523597 43 8
-1.4607159 -0.66691869 -0.37071934 6 1
-4.3335319 -1.9776456 0.24964255 32 9
-1.6753231 -0.76454854 -0.35795769 6 2
-4.4393239 -2.0249887 0.42688882 20 10
-2.0454109 -0.9325788 -0.35604486 6 3
-2.5905221 -1.1800233 -0.34952128 6 4
-8.2213497 -3.7432208 1.4307499 6 12
-3.5123341 -1.5991828 -0.33764133 4 5
-8.1751204 -3.7204478 1.7459024 21 13
-3.9923415 -1.8160505 -0.22985955 66 6
-8.1354856 -3.6989827 2.0632513 12 14
-3.9650776 -1.8019774 -0.076022685 73 7
-8.1207838 -3.6888809 2.389935 97 15
-1.2583017 -0.56973213 -0.37011126 7 0
-4.0407753 -1.8287269 0.077418879 42 8
-1.455933 -0.65860307 -0.36891973 7 1
-4.3349495 -1.9600382 0.24932852 26 9
-1.6851374 -0.7619313 -0.35948417 6 2
-4.669682 -2.1104054 0.44832912 43 10
-2.0378525 -0.92055404 -0.35416767 6 3
-2.6127191 -1.1791393 -0.35195872 6 4
-3.5178952 -1.5869119 -0.33764133 6 5
-8.1665802 -3.6822071 1.741323 19 13
-3.9913731 -1.7988211 -0.22944085 67 6
-8.1323557 -3.6633584 2.059202 48 14
-3.971343 -1.7881266 -0.076022685 73 7
-8.1195183 -3.6541691 2.3857942 100 15
-1.2708585 -0.57008034 -0.37321708 6 0
-4.0416594 -1.8121572 0.077314161 42 8
-1.4546664 -0.65192282 -0.36801991 6 1
-4.3144236 -1.9326466 0.24775843 30 9
-1.6716614 -0.74882096 -0.3560496 6 2
-4.6588354 -2.0859511 0.44658601 18 10
-2.0572805 -0.92069715 -0.35698348 5 3
-2.6077583 -1.16596 -0.35073999 6 4
-4.4058843 -1.9690022 0.76433885 20 12
-3.527051 -1.5762491 -0.33798996 5 5
-8.161458 -3.6456704 1.7375069 19 13
-3.9848619 -1.7791767 -0.22870816 67 6
-8.1326361 -3.6293912 2.0560527 53 14
-3.9830389 -1.7766967 -0.076127395 74 7
-8.1269321 -3.6234419 2.3842413 55 15
-1.2816676 -0.56956369 -0.37580526 6 0
-4.0497885 -1.798849 0.077349067 45 8
-1.455152 -0.64605039 -0.36757001 7 1
-4.3208089 -1.9183288 0.24775843 29 9
-1.685032 -0.7477597 -0.35833931 6 2
-4.327333 -1.9194176 0.4141641 29 10
-2.0460353 -0.90710533 -0.35448053 5 3
-4.3629675 -1.9334024 0.58594781 1 11
-2.6097949 -1.1565027 -0.35049626 6 4
-4.4250321 -1.9599807 0.76652896 11 12
-3.5307095 -1.5631211 -0.33781564 4 5
-8.1759291 -3.6179559 1.7378885 16 13
-3.9873946 -1.7636411 -0.2284988 67 6
-8.1125479 -3.5882134 2.0479543 25 14
-3.9852509 -1.7618614 -0.076057591 74 7
-8.1229992 -3.5894444 2.3795824 100 15
-1.2800133 -0.56375301 -0.37476999 7 0
-4.0703726 -1.7918557 0.077628307 43 8
-1.4572865 -0.64122128 -0.36757001 7 1
-4.3052092 -1.8943371 0.24650237 29 9
-1.6785166 -0.73821574 -0.35643122 5 2
-4.3628569 -1.9178865 0.41695309 5 10
-2.0562661 -0.90349388 -0.35573202 5 3
-2.6045282 -1.1438509 -0.34927759 6 4
-3.5559435 -1.5602099 -0.33973309 6 5
-8.1788921 -3.5868783 1.7359804 6 13
-3.9822457 -1.7455975 -0.22787078 70 6
-8.1172638 -3.558162 2.0461547 44 14
-3.9727559 -1.7406113 -0.075708538 76 7
-8.1437054 -3.5663643 2.3821707 100 15
-1.2712525 -0.5548684 -0.37166417 7 0
-4.0652952 -1.7735502 0.077418879 45 8
-1.46655 -0.63950092 -0.36936963 7 1
-4.3227801 -1.8840863 0.24713041 29 9
-1.6827554 -0.73342991 -0.35681283 5 2
-5.6039648 -2.4413278 0.5347876 2 10
-2.0592508 -0.89666998 -0.35573202 5 3
-2.6230679 -1.1410873 -0.35122749 6 4
-3.5339587 -1.5358756 -0.33711842 4 5
-4.4671865 -1.941461 0.94679433 8 13
-3.9861803 -1.7315874 -0.22776611 69 6
-8.1260586 -3.5282528 2.0452549 58 14
-3.9714701 -1.7235485 -0.075568922 72 7
-4.5583439 -1.9772964 1.3313652 23 15
-1.2644109 -0.54637372 -0.36907598 7 0
-4.0677905 -1.7577623 0.077349067 45 8
-1.4580393 -0.62974197 -0.36667022 7 1
-4.3348317 -1.8713603 0.24744442 29 9
-1.6944454 -0.73114604 -0.35872093 5 2
-2.0625234 -0.88911688 -0.35573202 5 3
-4.404191 -1.8985678 0.58887273 1 11
-2.6233888 -1.1303524 -0.35073999 6 4
-3.5539384 -1.5298332 -0.3385129 4 5
-4.4490242 -1.9142116 0.94145161 9 13
-3.9888306 -1.7153864 -0.22755675 69 6
-8.1192417 -3.4899821 2.0403061 57 14
-3.9774616 -1.7096758 -0.075568922 73 7
-8.1116056 -3.4850209 2.3656061 100 15
-1.2698624 -0.543477 -0.37011126 7 0
-4.0742054 -1.7428414 0.077349067 45 8
-1.4639212 -0.62592596 -0.36757001 7 1
-4.3248096 -1.8491505 0.24650237 32 9
-1.689766 -0.72214073 -0.35719445 5 2
-4.4303403 -1.8924433 0.42148519 1 10
-2.0692477 -0.8834632 -0.35635775 5 3
-4.3490434 -1.8559209 0.5805856 17 11
-2.631166 -1.1222879 -0.35122749 6 4
-3.5684211 -1.5213243 -0.33938447 4 5
-8.1600161 -3.4771752 1.7241502 14 13
-3.9764187 -1.6936269 -0.22651003 69 6
-8.118825 -3.4562745 2.0371568 49 14
-3.9815657 -1.6949971 -0.075534016 75 7
-8.1201658 -3.4551716 2.3645709 100 15
-1.2877599 -0.54582614 -0.37476999 7 0
-4.087327 -1.7324424 0.077488683 59 8
-1.4624001 -0.61954761 -0.36667022 7 1
-4.3073297 -1.8239176 0.24514163 34 9
-1.7193961 -0.72771651 -0.36291873 5 2
-2.0867207 -0.88275337 -0.3588607 5 3
-2.6257308 -1.1096926 -0.35000879 6 4
-3.5700388 -1.5073088 -0.33903584 4 5
-8.1606493 -3.4455142 1.7218604 13 13
-3.9838533 -1.6812078 -0.22661473 70 6
-8.1230583 -3.4263046 2.0353572 15 14
-3.9819303 -1.6787579 -0.075429298 72 7
-8.1268358 -3.4245572 2.3630178 94 15
-1.2735324 -0.53482074 -0.37011126 7 0
-4.0951934 -1.7189382 0.077523597 47 8
-1.4735388 -0.618209 -0.36891973 6 1
-4.2934089 -1.8003761 0.24399024 39 9
-1.7036947 -0.71441853 -0.35910255 5 2
-4.3990183 -1.8437591 0.41730168 1 10
-2.0715694 -0.86783171 -0.35573202 5 3
-2.6332505 -1.1020528 -0.35049626 7 4
-4.4064674 -1.8432646 0.75651717 1 12
-3.5897222 -1.5016127 -0.34043032 5 5
-8.1744375 -3.4177661 1.722242 11 13
-3.9896977 -1.6672913 -0.22661473 75 6
-8.1223822 -3.3926692 2.0322077 48 14
-3.9766936 -1.6602265 -0.075219877 72 7
-8.1191292 -3.3879848 2.3573241 100 15
-1.278959 -0.53185552 -0.3711465 7 0
-4.1011682 -1.7046338 0.077523597 54 8
-1.4738883 -0.61231357 -0.36846983 7 1
-4.3107347 -1.7899737 0.24461828 30 9
-1.7043651 -0.70771432 -0.35872093 4 2
-4.2950153 -1.7825677 0.40684301 14 10
-2.0964816 -0.86967748 -0.35948643 5 3
-4.3459187 -1.8019162 0.57766074 4 11
-2.640749 -1.0943742 -0.35098374 6 4
-4.3763742 -1.8127538 0.75025976 8 12
-3.5857379 -1.4852616 -0.33955875 4 5
-8.1972017 -3.3937168 1.7245318 11 13
-3.9973388 -1.6541178 -0.22671939 75 6
-8.112565 -3.35536 2.026809 57 14
-3.9787688 -1.6448071 -0.075150065 72 7
-8.1201944 -3.3551946 2.3542182 100 15
-1.2915257 -0.53180146 -0.37425235 7 0
-4.0775065 -1.6781307 0.076965116 42 8
-1.4760166 -0.60716492 -0.36846983 7 1
-4.3114152 -1.7726371 0.24430427 32 9
-1.7050093 -0.7010141 -0.35833931 5 2
-4.2993689 -1.7668071 0.40666869 21 10
-2.0812323 -0.85484886 -0.35635775 5 3
-2.6463897 -1.0859033 -0.35122749 6 4
-4.3881578 -1.7997149 0.75119835 22 12
-3.6056478 -1.4787841 -0.34095326 4 5
-8.183567 -3.3546576 1.719189 11 13
-3.9975441 -1.6378827 -0.22640537 73 6
-8.1170149 -3.3240671 2.0250094 23 14
-3.9807844 -1.6293935 -0.075080253 72 7
-8.1032467 -3.3151269 2.3459358 58 15
-1.2933743 -0.52728993 -0.37425235 7 0
-4.0981541 -1.6699228 0.077244349 50 8
-1.4672983 -0.59759861 -0.3657704 7 1
-4.3064766 -1.7530591 0.24367623 31 9
-1.7019907 -0.69283789 -0.35719445 4 2
-4.3295016 -1.7615501 0.40893474 3 10
-2.0842035 -0.8475787 -0.35635775 5 3
-2.6501641 -1.076659 -0.35122749 6 4
-3.5867894 -1.4564443 -0.33868721 5 5
-8.193408 -3.3253324 1.7188075 6 13
-3.9847291 -1.6164109 -0.22535865 73 6
-8.1159267 -3.2905877 2.0218601 34 14
-3.9883013 -1.616239 -0.075115159 75 7
-8.1022358 -3.281744 2.3423123 100 15
-1.2934154 -0.52204883 -0.37373474 7 0
-4.1113763 -1.6585999 0.077383965 50 8
-1.4874487 -0.59976095 -0.37026942 7 1
-4.3051605 -1.7350286 0.24325755 31 9
-1.7262503 -0.6956985 -0.36177388 4 2
-4.3467121 -1.7508928 0.4099806 3 10
-2.0944788 -0.8432498 -0.35760921 5 3
-2.6428559 -1.062957 -0.34976503 7 4
-3.612186 -1.4520904 -0.34060463 4 5
-4.4504285 -1.7881585 0.93229276 14 13
-3.9903474 -1.6024916 -0.22535865 72 6
-8.1056614 -3.2535284 2.0164614 60 14
-3.9883511 -1.6000736 -0.075010449 73 7
-4.5472255 -1.8233653 1.3127302 24 15
-1.2880542 -0.51466328 -0.37166417 7 0
-4.1227117 -1.6464641 0.077488683 56 8
-1.4786738 -0.59023046 -0.36757001 7 1
-4.3037705 -1.7170298 0.24283887 33 9
-1.7159036 -0.68457592 -0.35910255 5 2
-4.3083811 -1.717999 0.40579712 3 10
-2.0900698 -0.83300811 -0.35635775 5 3
-2.6613045 -1.0596002 -0.35171497 6 4
-3.6061261 -1.4350517 -0.33955875 4 5
-8.225544 -3.2716787 1.7207156 8 13
-3.9884925 -1.5856025 -0.22493997 66 6
-8.1061039 -3.2208951 2.013762 59 14
-3.9734683 -1.5780227 -0.07462649 75 7
-8.12854 -3.2265275 2.3433478 65 15
-1.2862498 -0.50874317 -0.37062889 7 0
-4.1284337 -1.632063 0.077488683 63 8
-1.4952246 -0.59079391 -0.37116924 7 1
-4.3060222 -1.7005302 0.24262951 33 9
-1.7091526 -0.67497689 -0.35719445 5 2
-4.2884064 -1.6927081 0.40335676 5 10
-2.1076653 -0.83150631 -0.3588607 5 3
-2.6539056 -1.0459368 -0.35025251 6 4
-3.6317539 -1.4298545 -0.3414762 4 5
-8.1948986 -3.2264059 1.7119384 15 13
-4.0088711 -1.577521 -0.22577733 72 6
-8.1082287 -3.1890128 2.0115123 57 14
-3.9789522 -1.564144 -0.07462649 75 7
-8.1127834 -3.1875346 2.3355832 100 15
-1.2809097 -0.50120962 -0.36855832 7 0
-4.1285191 -1.6154561 0.077383965 50 8
-1.5027223 -0.58770061 -0.37251896 7 1
-4.3082113 -1.6840345 0.24242018 31 9
-1.728073 -0.67513746 -0.36062902 5 2
-4.2834458 -1.6726305 0.40231091 7 10
-2.0959771 -0.81803054 -0.35635775 5 3
-4.4085908 -1.7206115 0.58107305 1 11
-2.6741853 -1.0431587 -0.35244617 6 4
-3.6163023 -1.4092109 -0.33955875 4 5
-8.1902046 -3.1899335 1.7085038 19 13
-4.003459 -1.55847 -0.2251493 73 6
-8.1053333 -3.1536222 2.0079131 16 14
-3.9843879 -1.5502452 -0.07462649 72 7
-8.0968533 -3.1486936 2.3278186 100 15
-1.3042692 -0.50510728 -0.37476999 7 0
-4.1194935 -1.5945388 0.077104732 43 8
-1.4866914 -0.57515758 -0.36801991 6 1
-4.2882748 -1.6581485 0.24095476 37 9
-1.7212634 -0.66556144 -0.35872093 5 2
-4.3022676 -1.6626959 0.40353107 8 10
-2.102505 -0.81213272 -0.35698348 5 3
-4.3352375 -1.6736988 0.57059228 13 11
-2.6835465 -1.0354948 -0.3531774 6 4
-4.3846374 -1.691011 0.74431533 15 12
-3.6211998 -1.3965782 -0.33955875 6 5
-8.1902981 -3.1570904 1.7062141 18 13
-3.9958286 -1.5394593 -0.2244166 70 6
-8.1090183 -3.1225069 2.0061135 27 14
-3.9900432 -1.5356312 -0.07462649 75 7
-8.1011257 -3.1162233 2.325748 72 15
-1.2952011 -0.49640322 -0.37166417 7 0
-4.1231675 -1.579434 0.077069834 42 8
-1.4941498 -0.57205492 -0.36936963 7 1
-4.2903066 -1.6417419 0.24074543 33 9
-1.7400784 -0.66586375 -0.3621555 5 2
-4.3024626 -1.6455326 0.40300813 15 10
-2.1127079 -0.80760998 -0.35823497 5 3
-4.3206553 -1.6507622 0.56791121 5 11
-2.6648908 -1.0176231 -0.35025251 6 4
-4.3831306 -1.6728789 0.74306375 21 12
-3.6428053 -1.3903241 -0.34112757 6 5
-8.1902628 -3.1242831 1.7039244 19 13
-3.9993117 -1.5247903 -0.22431193 73 6
-8.1034794 -3.0879385 2.0020645 60 14
-3.995379 -1.5216939 -0.07462649 76 7
-8.1245937 -3.0927348 2.3293715 54 15
-1.3131827 -0.49804464 -0.37632293 7 0
-4.1062164 -1.5565269 0.07665097 38 8
-1.5016046 -0.56890708 -0.37071934 6 1
-4.2922754 -1.6253411 0.24053608 31 9
-1.7350479 -0.65700465 -0.36062902 5 2
-4.3268142 -1.6375576 0.40475124 14 10
-2.1265998 -0.80442363 -0.36011216 5 3
-2.6795685 -1.0125247 -0.35171497 7 4
-4.4684067 -1.6875793 0.75651717 1 12
-3.6550918 -1.3804153 -0.34182483 6 5
-8.2029552 -3.0963674 1.704306 15 13
-3.9933982 -1.5065897 -0.22368389 72 6
-8.0941505 -3.0520699 1.9971154 62 14
-3.9856968 -1.5020963 -0.07434725 75 7
-8.1136465 -3.0561843 2.3231599 62 15
-1.2968262 -0.48667043 -0.3711465 7 0
-4.162178 -1.5611442 0.077593401 36 8
-1.4944576 -0.56024176 -0.36846983 7 1
-4.2885709 -1.6068455 0.24001274 28 9
-1.7318153 -0.6488781 -0.35948417 5 2
-4.3213091 -1.6182508 0.40370542 29 10
-2.1256948 -0.79561055 -0.35948643 5 3
-2.6868052 -1.0045555 -0.35220242 6 4
-3.6356256 -1.3585817 -0.33955875 4 5
-8.200839 -3.0629084 1.7016346 9 13
-3.9986327 -1.4926419 -0.22368389 73 6
-8.084672 -3.0163043 1.9921664 19 14
-3.983422 -1.4853789 -0.074207634 75 7
-8.1134024 -3.0237975 2.3200541 71 15
-1.2984329 -0.48236728 -0.3711465 8 0
-4.1710811 -1.5487266 0.077663213 42 8
-1.5090963 -0.56002879 -0.37161914 7 1
-4.2695322 -1.5835859 0.23865199 27 9
-1.7468427 -0.64791065 -0.3621555 5 2
-4.2836847 -1.5879835 0.39969626 31 10
-2.1097982 -0.78169405 -0.35635775 5 3
-2.69943 -0.99908513 -0.35342112 6 4
-3.6590331 -1.3527926 -0.34130189 4 5
-8.1888533 -3.0275264 1.6970552 18 13
-4.011054 -1.4821427 -0.22410259 70 6
-8.1055984 -2.9935281 1.9948659 28 14
-3.9920769 -1.4735478 -0.074277438 73 7
-8.0871363 -2.9835026 2.3097014 100 15
-1.2929388 -0.47494027 -0.36907598 8 0
-4.1858473 -1.5376036 0.077837728 40 8
-1.5018951 -0.55139983 -0.36936963 7 1
-4.2937841 -1.5755528 0.23969871 31 9
-1.7492057 -0.64150339 -0.3621555 6 2
-4.2988291 -1.5757016 0.40056777 31 10
-2.1237779 -0.77803355 -0.35823497 5 3
-2.6917169 -0.98556107 -0.35195872 6 4
-3.6543775 -1.3365891 -0.34043032 4 5
-8.1888313 -2.9934461 1.6947654 21 13
-3.9995759 -1.4612639 -0.22316055 70 6
-8.1165152 -2.9637995 1.9948659 64 14
-3.9971964 -1.4596028 -0.074277438 73 7
-8.1011305 -2.9565794 2.3107367 100 15
-1.3091142 -0.47570267 -0.37321708 7 0
-4.1801772 -1.5181565 0.077628307 57 8
-1.5112332 -0.54855072 -0.37116924 7 1
-4.2807546 -1.5529933 0.23865199 31 9
-1.7532799 -0.63606352 -0.36253712 6 2
-4.3043032 -1.5606862 0.40056777 15 10
-2.1190522 -0.7679227 -0.35698348 5 3
-2.6934443 -0.97501373 -0.35171497 6 4
-3.6758828 -1.3299252 -0.34199914 4 5
-8.2029247 -2.9661784 1.6955289 7 13
-3.9971385 -1.4445783 -0.22274184 70 6
-8.0883226 -2.9215469 1.985418 63 14
-4.0025191 -1.4449425 -0.074277438 75 7
-8.0973759 -2.9216223 2.3065956 64 15
-1.3016769 -0.46786284 -0.37062889 7 0
-4.2268538 -1.5184288 0.078396209 45 8
-1.5131388 -0.5432725 -0.37116924 7 1
-4.2560711 -1.5272477 0.23697723 31 9
-1.7480979 -0.62728709 -0.36101064 6 2
-4.3040986 -1.5436339 0.40004486 19 10
-2.1254387 -0.76185471 -0.35760921 5 3
-4.3206401 -1.5478647 0.56352389 2 11
-2.6968315 -0.9656052 -0.35171497 6 4
-3.6955099 -1.3224562 -0.34339362 4 5
-4.4310389 -1.5847977 0.91473836 11 13
-4.0002761 -1.4299433 -0.22263718 75 6
-8.0874596 -2.8893614 1.9827186 25 14
-3.9981225 -1.427601 -0.074102923 72 7
-8.0966091 -2.8894434 2.3034897 65 15
-1.303302 -0.46331626 -0.37062889 7 0
-4.2321281 -1.503665 0.078396209 41 8
-1.5186986 -0.5392915 -0.37206903 7 1
-4.2385268 -1.5051054 0.23572117 45 9
-1.7502769 -0.62118119 -0.36101064 6 2
-4.2662721 -1.51328 0.39603567 21 10
-2.1373942 -0.75773096 -0.35917357 5 3
-4.3185325 -1.5301214 0.56254894 11 11
-2.7037609 -0.95798337 -0.35220242 6 4
-4.3535252 -1.5416635 0.73148763 5 12
-3.6738081 -1.3002427 -0.34095326 6 5
-8.2012215 -2.9009848 1.6909494 21 13
-4.016542 -1.4199654 -0.22326522 72 6
-8.0878115 -2.8592787 1.9804692 17 14
-3.9820943 -1.4070065 -0.073718965 75 7
-8.0879288 -2.8561444 2.2983131 100 15
-1.3121209 -0.46155599 -0.37269944 7 0
-4.2389779 -1.4902868 0.078431122 45 8
-1.5204787 -0.53425229 -0.37206903 7 1
-4.243495 -1.4910414 0.23572117 45 9
-1.7634413 -0.61927664 -0.36330032 6 2
-4.2806668 -1.5024232 0.39690727 21 10
-2.1305752 -0.74736959 -0.35760921 6 3
-4.3385696 -1.5210463 0.5644989 11 11
-2.7069225 -0.94901198 -0.35220242 7 4
-4.3716626 -1.5317905 0.73367769 21 12
-3.6987844 -1.2952963 -0.34287068 5 5
-8.1904125 -2.8666382 1.6867516 21 13
-4.0136876 -1.4040003 -0.22284654 70 6
-8.1064453 -2.8356595 1.9827186 69 14
-3.9848509 -1.3931336 -0.073684059 73 7
-8.093708 -2.8280358 2.2972779 100 15
-1.3099953 -0.45593226 -0.37166417 7 0
-4.2420077 -1.4755644 0.078396209 41 8
-1.5075166 -0.52408791 -0.36846983 7 1
-4.2731996 -1.4847414 0.2370819 34 9
-1.7654853 -0.61342537 -0.36330032 6 2
-4.2762141 -1.4849536 0.39603567 21 10
-2.1349082 -0.7409479 -0.35792211 5 3
-2.7233477 -0.94410926 -0.3539086 7 4
-8.1884108 -2.8370929 1.3725561 18 12
-3.695529 -1.2804143 -0.34217343 6 5
-8.1850328 -2.8343222 1.6836987 22 13
-3.9994471 -1.3841504 -0.22179982 73 6
-8.1015606 -2.8022509 1.9791193 64 14
-4.0010295 -1.3831354 -0.073893487 73 7
-8.0925751 -2.7959788 2.294172 68 15
-1.3188856 -0.45387155 -0.37373474 7 0
-4.2490239 -1.4613985 0.078431122 39 8
-1.5074939 -0.51818895 -0.36801991 6 1
-4.2802448 -1.4704659 0.23718657 37 9
-1.7620455 -0.60534573 -0.3621555 6 2
-4.2813721 -1.4700167 0.39603567 22 10
-2.1337447 -0.73220879 -0.35729638 5 3
-2.7153599 -0.93073463 -0.35244617 6 4
-8.1870518 -2.8046513 1.3706789 18 12
-3.7169397 -1.2733179 -0.34374225 6 5
-8.1874466 -2.8031898 1.6821721 13 13
-4.0042539 -1.370182 -0.22179982 73 6
-8.0836353 -2.7644954 1.9723709 60 14
-3.9963715 -1.3659267 -0.073718965 75 7
-4.537426 -1.5499705 1.2847778 14 15
-1.3204619 -0.44926494 -0.37373474 6 0
-4.2446332 -1.4433376 0.078256592 37 8
-1.5185189 -0.51605922 -0.37026942 7 1
-4.2796783 -1.453589 0.23687255 34 9
-1.7622889 -0.59855992 -0.36177388 6 2
-4.2789311 -1.4525012 0.39533845 28 10
-2.154994 -0.73110241 -0.36042506 5 3
-2.7167122 -0.92061341 -0.35220242 6 4
-8.1818247 -2.7709866 1.368176 18 12
-3.7234688 -1.2603247 -0.34391654 6 5
-4.416585 -1.4949316 0.90634274 11 13
-4.0090127 -1.3561962 -0.22179982 73 6
-8.0858517 -2.7337646 1.9705712 29 14
-3.9878538 -1.3474873 -0.073474631 69 7
-8.1082373 -2.7381797 2.2931368 100 15
-1.3147751 -0.44196001 -0.37166417 7 0
-4.2534366 -1.4297875 0.078326404 43 8
-1.5277002 -0.51323783 -0.37206903 7 1
-4.2638993 -1.4316473 0.23572117 37 9
-1.7607484 -0.59084713 -0.36101064 6 2
-4.2672238 -1.4311075 0.39376962 43 10
-2.1464214 -0.71943235 -0.35854784 5 3
-4.6188698 -1.5481418 0.59813482 1 11
-2.7199092 -0.91112459 -0.35220242 6 4
-8.1802073 -2.7386489 1.3662988 18 12
-3.7089512 -1.2409977 -0.34217343 5 5
-8.1886768 -2.7383039 1.6783561 22 13
-4.0177445 -1.3427603 -0.22200914 72 6
-8.1013613 -2.7059622 1.971921 22 14
-3.9849467 -1.331025 -0.073335014 70 7
-8.0902596 -2.7006843 2.2853725 69 15
-1.3108099 -0.43554041 -0.37011126 8 0
-4.2491593 -1.4110371 0.078151874 45 8
-1.5332704 -0.50886238 -0.37296885 7 1
-4.2785964 -1.4191545 0.23624454 34 9
-1.7665269 -0.58593392 -0.36177388 6 2
-4.2684121 -1.4149485 0.39342102 31 10
-2.1489196 -0.71193552 -0.35854784 5 3
-4.30792 -1.4263775 0.55718666 12 11
-2.7307689 -0.90364408 -0.3531774 6 4
-8.1864405 -2.7074056 1.3656731 18 12
-3.7283938 -1.2330481 -0.34356794 4 5
-8.1758165 -2.7023118 1.6737766 16 13
-4.0205112 -1.3281002 -0.22190447 72 6
-8.0922527 -2.6715569 1.9674219 69 14
-3.9954951 -1.3182909 -0.073439725 75 7
-8.0835905 -2.6655686 2.2807136 100 15
-1.3233346 -0.4345786 -0.37321708 8 0
-4.2293591 -1.3880885 0.077698112 47 8
-1.5183721 -0.49804115 -0.36891973 7 1
-4.2797284 -1.4029664 0.23603518 34 9
-1.7760236 -0.58221024 -0.36330032 6 2
-4.2581782 -1.3950777 0.39202651 35 10
-2.1401279 -0.70074248 -0.35667065 5 3
-4.4298449 -1.4496089 0.57229847 1 11
-2.7339065 -0.89410633 -0.3531774 6 4
-8.1770639 -2.6726782 1.3625443 9 12
-3.7194183 -1.2156941 -0.34234774 4 5
-8.1889324 -2.6749735 1.6745398 9 13
-4.0080342 -1.3084791 -0.22096242 76 6
-8.0941191 -2.6408777 1.9656224 36 14
-4.000073 -1.3043351 -0.073439725 76 7
-8.0818243 -2.6337435 2.2776077 100 15
-1.3248434 -0.42995694 -0.37321708 8 0
-4.2417874 -1.3757855 0.077837728 57 8
-1.5052711 -0.48793077 -0.3653205 6 1
-4.265358 -1.3826077 0.23498847 37 9
-1.7780454 -0.57600671 -0.36330032 6 2
-4.2687078 -1.3820474 0.39254946 31 10
-2.1538374 -0.6969164 -0.35854784 5 3
-4.3177729 -1.3962668 0.55718666 11 11
-2.7388995 -0.88516879 -0.35342112 7 4
-4.3701897 -1.4123758 0.72742033 14 12
-3.7407026 -1.2082146 -0.34391654 5 5
-8.1776686 -2.6397381 1.6703421 13 13
-4.0125771 -1.2944813 -0.22096242 75 6
-8.0940142 -2.6096175 1.9633728 18 14
-4.0081825 -1.2922913 -0.073509537 79 7
-8.0849991 -2.6051512 2.2760549 100 15
-1.3336946 -0.42768908 -0.37528762 8 0
-4.263464 -1.3672072 0.078151874 46 8
-1.5217268 -0.48769435 -0.36891973 6 1
-4.2701583 -1.3677104 0.23498847 37 9
-1.772566 -0.56740296 -0.36177388 6 2
-4.2678132 -1.365317 0.39202651 31 10
-2.1617811 -0.69157577 -0.35948643 6 3
-4.5454946 -1.4532756 0.58594781 1 11
-2.7304742 -0.87245607 -0.35195872 6 4
-4.3600392 -1.392305 0.72491741 24 12
-3.7448976 -1.1951488 -0.34391654 6 5
-8.1807661 -2.6108143 1.6691971 22 13
-4.0168481 -1.2811677 -0.22096242 75 6
-8.0710583 -2.5727007 1.9557245 54 14
-4.0012374 -1.2746493 -0.073300108 76 7
-8.0866795 -2.5745709 2.2739842 100 15
-1.322215 -0.41917729 -0.37166417 8 0
-4.2624917 -1.3505045 0.078047164 45 8
-1.534567 -0.48590913 -0.37161914 7 1
-4.2749062 -1.3527962 0.23498847 34 9
-1.7725658 -0.56092936 -0.36139226 6 2
-4.251421 -1.3445481 0.39010909 31 10
-2.1604149 -0.68283492 -0.3588607 6 3
-4.5505395 -1.4374 0.58594781 1 11
-2.7410753 -0.86530989 -0.35293365 6 4
-8.1645908 -2.5758531 1.3559741 18 12
-3.7433462 -1.1802728 -0.34339362 6 5
-8.1804686 -2.5792925 1.6672891 25 13
-4.0212955 -1.2671385 -0.22096242 75 6
-8.0855675 -2.546268 1.9570743 68 14
-4.0094762 -1.2618759 -0.073369913 78 7
-8.0919323 -2.5451679 2.272949 76 15
-1.3163679 -0.41202009 -0.36959362 8 0
-4.2538209 -1.331436 0.077802829 43 8
-1.530674 -0.47880453 -0.37026942 7 1
-4.2643518 -1.3330982 0.23415108 37 9
-1.7858535 -0.55794156 -0.36368197 6 2
-4.2582226 -1.3295506 0.39028341 33 10
-2.1629033 -0.67491198 -0.3588607 6 3
-4.5555296 -1.4215066 0.58594781 1 11
-2.7592397 -0.86046433 -0.35488355 7 4
-8.1773052 -2.5485132 1.3565999 19 12
-3.7550521 -1.1695688 -0.34409088 6 5
-8.1692467 -2.5428736 1.6630913 12 13
-4.022099 -1.2512047 -0.2207531 76 6
-8.079958 -2.511987 1.9534749 66 14
-4.0023999 -1.2443106 -0.073160492 76 7
-8.0860081 -2.5123203 2.2688079 81 15
-1.3251805 -0.40970534 -0.37166417 8 0
-4.2548509 -1.3146554 0.077733018 43 8
-1.5286947 -0.47204083 -0.36936963 7 1
-4.2651629 -1.3170261 0.23394175 48 9
-1.793418 -0.55344152 -0.3648268 6 2
-4.2495103 -1.3105682 0.38906324 40 10
-2.165246 -0.6673578 -0.3588607 6 3
-4.5607085 -1.4048012 0.58594781 1 11
-2.7736092 -0.85433418 -0.35634598 7 4
-8.1767111 -2.5170472 1.3550355 22 12
-3.7591119 -1.156454 -0.34409088 6 5
-4.413682 -1.3569829 0.89756554 13 13
-4.0092597 -1.2318777 -0.21981104 75 6
-8.082655 -2.4834616 1.9521253 67 14
-4.0105419 -1.2315059 -0.073230296 78 7
-8.0799532 -2.4795454 2.2646666 81 15
